# .PCD v0.7 - Point Cloud Data file format
VERSION 0.7
FIELDS x y z
SIZE 4 4 4
TYPE F F F
COUNT 1 1 1
WIDTH 1536
HEIGHT 1
VIEWPOINT 0 0 0 1 0 0 0
POINTS 1536
DATA ascii
-5.1129351 6.1525984 0.40483782
-5.1138577 6.1556606 0.40492317
-5.1224852 6.1550617 0.40494177
-5.123384 6.1608329 0.40655559
-5.1238618 6.1672735 0.40876767
-5.1410699 6.1665635 0.41057867
-5.1496377 6.1659684 0.41059715
-5.1577129 6.1663404 0.412099
-5.1606903 6.1702042 0.41295072
-5.1593957 6.1777897 0.41131046
-5.1632433 6.1813393 0.41104308
-5.1715765 6.1811686 0.40658587
-5.1827993 6.1781201 0.40934128
-5.1891861 6.1792784 0.41358033
-5.204474 6.180378 0.41484994
-5.1967616 6.1863503 0.42029878
-5.2077899 6.1885152 0.42528051
-5.211165 6.1916676 0.42215797
-5.2150917 6.1951566 0.42053246
-5.2299571 6.196013 0.41636473
-5.2372198 6.197207 0.41024125
-5.2464991 6.196806 0.40965471
-5.2490373 6.2012868 0.41428766
-5.2514691 6.2054043 0.42201385
-5.2585673 6.2058134 0.4263829
-5.2706571 6.2032857 0.42753389
-5.2781334 6.2042074 0.41846129
-5.2863741 6.2041569 0.41773868
-5.2976098 6.2080522 0.4123449
-5.298543 6.214139 0.41294751
-5.3002701 6.21907 0.41722697
-5.3083987 6.2210484 0.42115578
-5.3127847 6.2211928 0.42138645
-5.3178797 6.2240062 0.41768104
-5.3264399 6.2236714 0.41761762
-5.3296981 6.2275901 0.41738892
-5.3448472 6.2289972 0.41524205
-5.3483028 6.2328744 0.41407934
-5.3555088 6.2335129 0.41445571
-5.3596511 6.2367086 0.41385457
-5.3637018 6.2405462 0.40792239
-5.3686595 6.2435579 0.40136009
-5.375648 6.2446747 0.40191901
-5.3844995 6.2436204 0.40900853
-5.3935003 6.2429948 0.40902796
-5.4032116 6.247931 0.41761634
-5.4011493 6.2498651 0.41457856
-5.4164 6.2506633 0.41106129
-5.4226804 6.2525272 0.40175843
-5.4259553 6.2567444 0.39865562
-5.4297786 6.2599244 0.40091148
-5.4370561 6.2602506 0.40744254
-5.4453907 6.2603259 0.41623417
-5.4531832 6.2606788 0.41822261
-5.4590788 6.2623687 0.4234474
-5.4771018 6.2613187 0.41938713
-5.4832764 6.2628865 0.41686401
-5.4872231 6.2662697 0.41841123
-5.4886398 6.2721229 0.42106137
-5.4970417 6.2715392 0.42107949
-5.4978294 6.2775965 0.42288691
-5.5053706 6.2778516 0.42573616
-5.5208621 6.2780552 0.42404029
-5.5279598 6.2789307 0.42505595
-5.5319247 6.2824955 0.42689675
-5.5405421 6.2818971 0.42691535
-5.5434709 6.2861314 0.42764065
-5.5464845 6.2905426 0.42725852
-5.5519795 6.2931619 0.4219065
-5.5614376 6.2924647 0.42199564
-5.5670567 6.2962165 0.41990566
-5.5826216 6.295135 0.41993925
-5.5834384 6.3010592 0.42590126
-5.5903387 6.3020296 0.42959574
-5.5971365 6.303041 0.43032646
-5.6059866 6.3025513 0.4295575
-5.6166124 6.3008327 0.42356095
-5.631742 6.2949562 0.41764423
-5.6520653 6.2890763 0.41642618
-5.6669288 6.2828684 0.41436249
-5.6807346 6.2784691 0.40731767
-5.6896176 6.2778521 0.40733683
-5.7088957 6.2676282 0.41118041
-5.720479 6.2646103 0.41328958
-5.7373805 6.2575183 0.41788441
-5.7483993 6.2546105 0.41765499
-5.7686458 6.2514486 0.41674146
-5.778801 6.2496076 0.41396055
-5.7918067 6.2451496 0.41248047
-5.8007522 6.2440767 0.41204166
-5.8094296 6.2434154 0.40944305
-5.8208513 6.2399879 0.41678563
-5.8327551 6.2370782 0.41924849
-5.8465266 6.2345147 0.42078921
-5.8628163 6.2308435 0.4221698
-5.8717484 6.2302232 0.42218906
-5.8822069 6.2281885 0.41778189
-5.8938522 6.2253723 0.41081265
-5.9018793 6.2259927 0.40846309
-5.9098501 6.2262917 0.40829462
-5.9179902 6.2271075 0.40643519
-5.9268336 6.2264934 0.40645429
-5.9418197 6.219728 0.41010824
-5.9629421 6.2152095 0.41529766
-5.9669094 6.2191167 0.41667098
-5.9760084 6.2184849 0.41669062
-5.9802999 6.2221432 0.415595
-5.9896049 6.2211585 0.41004121
-5.9978619 6.2211776 0.40646288
-6.009881 6.22049 0.40494651
-6.0164852 6.2184191 0.40526858
-6.0338387 6.2174764 0.40717474
-6.0425129 6.2168412 0.41157103
-6.0519686 6.2163363 0.41190559
-6.061306 6.2156367 0.40346304
-6.0713568 6.2141576 0.39298278
-6.0821934 6.2115359 0.39108208
-6.0910635 6.2113147 0.38894176
-6.0936913 6.2163548 0.38878781
-6.0997486 6.2182155 0.39036152
-6.1123085 6.2212391 0.39774433
-6.1261549 6.2161331 0.40177956
-6.1368713 6.2132998 0.40558958
-6.1449099 6.213222 0.41055366
-6.1536884 6.2156539 0.40851983
-6.1584673 6.2160349 0.40852061
-6.1662931 6.216249 0.40851089
-6.1768904 6.2143965 0.4048146
-6.1867781 6.212544 0.40639436
-6.1944776 6.2126698 0.4086923
-6.212265 6.2115684 0.41474569
-6.2209949 6.2102895 0.42437547
-6.2308908 6.208231 0.43170246
-6.2431288 6.2039046 0.43649921
-6.2597337 6.1957989 0.43370619
-6.2771239 6.1873088 0.43088096
-6.2942181 6.1780772 0.43014669
-6.3098545 6.1699066 0.43529347
-6.3199859 6.1678891 0.43712157
-6.3318486 6.1644001 0.44264159
-6.3554025 6.1558704 0.44724241
-6.3727627 6.1460719 0.45304656
-6.3856487 6.1413851 0.45611843
-6.3985214 6.1367383 0.45826796
-6.4079099 6.1360669 0.45785242
-6.4204721 6.1334634 0.45673507
-6.4424205 6.1260815 0.45544353
-6.4545765 6.1220641 0.45388237
-6.4648733 6.1203246 0.45155257
-6.4733338 6.1193109 0.46068075
-6.4819412 6.1187129 0.46069935
-6.491137 6.1169748 0.4741331
-6.4993658 6.1168418 0.47778389
-6.509007 6.1158223 0.47698548
-6.5187211 6.1143475 0.47587126
-6.533494 6.1081176 0.4677121
-6.5496092 6.1069984 0.46774688
-6.557734 6.1079035 0.46166852
-6.5628929 6.1115274 0.45647046
-6.5729656 6.1095972 0.45749792
-6.5863352 6.103981 0.4634937
-6.5963817 6.1020985 0.46545482
-6.6067872 6.0998874 0.46813488
-6.6175561 6.0972972 0.47289219
-6.6354585 6.0960031 0.47179669
-6.641582 6.0977459 0.47381401
-6.6486278 6.0992508 0.46980157
-6.6553807 6.1010275 0.46446112
-6.6644211 6.1003995 0.46448061
-6.6694694 6.1033974 0.46974555
-6.6780944 6.1025691 0.475252
-6.6935515 6.1009727 0.48231602
-6.7014265 6.1003113 0.48326954
-6.7109632 6.0985227 0.48680708
-6.719276 6.0989609 0.48159143
-6.7242322 6.1033239 0.47948852
-6.7321978 6.1041322 0.47465783
-6.7403536 6.1034966 0.47677791
-6.7578015 6.1026506 0.47702903
-6.7646809 6.103878 0.48112807
-6.7725625 6.1041899 0.48228687
-6.7773314 6.1073246 0.48853531
-6.7858391 6.107007 0.49111426
-6.7944512 6.107091 0.49054775
-6.8039842 6.1056395 0.49283892
-6.8158789 6.1024199 0.48815218
-6.8264999 6.099905 0.4811464
-6.8436856 6.0983386 0.48143896
-6.8575554 6.0922022 0.48189679
-6.8762269 6.080276 0.4889257
-6.892983 6.0704002 0.49683559
-6.9042072 6.0670142 0.49750611
-6.9235849 6.0547667 0.49667135
-6.9326644 6.0541358 0.49669093
-6.9486747 6.0458932 0.49072334
-6.9669428 6.044322 0.48109737
-6.9762545 6.0430946 0.47772738
-6.9899249 6.0365748 0.48202515
-6.9999604 6.0350204 0.48268163
-7.0175791 6.0244799 0.4854745
-7.0317106 6.017561 0.49184462
-7.0417452 6.01509 0.49767587
-7.053627 6.014626 0.49885663
-7.0669265 6.0141482 0.49975309
-7.0672956 6.0139036 0.49750105
-7.0859261 6.0118756 0.49727434
-7.0980949 6.0083027 0.48362648
-7.1062684 6.0078678 0.48444211
-7.1134143 6.0080647 0.49790984
-7.1220717 6.0071263 0.50502467
-7.1318049 6.0047188 0.51627427
-7.1415825 6.0040393 0.51629537
-7.1521578 6.0011559 0.51583159
-7.1706686 5.9996104 0.50921738
-7.1777143 6.0013118 0.50744486
-7.1855783 6.0017891 0.50629532
-7.1931839 6.0026126 0.50676638
-7.1931839 6.0026126 0.50676638
-7.2106905 6.0004668 0.5135479
-7.2179956 6.0007915 0.5241335
-7.2277994 6.0014143 0.51787722
-7.2440052 5.9997306 0.52063328
-7.2507567 6.0006714 0.52767038
-7.2582521 6.0014348 0.53127295
-7.2643318 6.0049734 0.52493972
-7.273983 6.0030274 0.52524209
-7.2815833 6.0034738 0.5253638
-7.2880135 6.0052342 0.52548862
-7.2938175 6.0082264 0.53256565
-7.3020396 6.0080209 0.5343852
-7.3206396 6.0065541 0.53544629
-7.329318 6.0059009 0.53960609
-7.3333626 6.0113716 0.53660023
-7.3441391 6.0118055 0.53565162
-7.3455968 6.0163016 0.52766299
-7.357203 6.0130129 0.5212208
-7.3691921 6.0084262 0.51790762
-7.3793812 6.0056262 0.52218437
-7.3991647 6.0018826 0.52565956
-7.4165978 5.9908977 0.52395254
-7.4264793 5.9890695 0.52410704
-7.4380403 5.9856133 0.52238566
-7.4465871 5.9844708 0.53272212
-7.4637909 5.9736557 0.53409743
-7.4780722 5.9673839 0.51936811
-7.4884329 5.9647002 0.51722491
-7.4957361 5.9651437 0.52366871
-7.5149746 5.9614115 0.5272851
-7.5156407 5.9602757 0.5309453
-7.5329919 5.9567337 0.53014225
-7.5420709 5.9558372 0.5301854
-7.5567865 5.9484024 0.52724743
-7.5695424 5.9434958 0.52288896
-7.5815749 5.948832 0.52601236
-7.5895143 5.9492106 0.52695262
-7.5940113 5.9535861 0.53130102
-7.6029339 5.9529662 0.53132027
-7.6147661 5.9488435 0.52684808
-7.6250534 5.9461679 0.52814931
-7.6328998 5.9459786 0.53586727
-7.6424999 5.945312 0.53588802
-7.6479359 5.9476109 0.54506665
-7.661561 5.9521422 0.54320407
-7.6704149 5.9515276 0.5432232
-7.6714225 5.9510837 0.53375554
-7.6900306 5.9487901 0.52108824
-7.6989131 5.9477811 0.52102232
-7.7068758 5.9477024 0.52303642
-7.7098656 5.9541516 0.5354023
-7.7178354 5.9539094 0.5411551
-7.7356992 5.9526687 0.54119366
-7.7475705 5.9481602 0.53770649
-7.7519355 5.9550252 0.52425307
-7.7594457 5.9557748 0.52293038
-7.7654562 5.9590077 0.5202201
-7.7759218 5.9561758 0.5185886
-7.7806673 5.9624658 0.49869049
-7.7881012 5.9651227 0.48698136
-7.7998352 5.9601293 0.4874503
-7.8129106 5.9543066 0.48841241
-7.8279376 5.9568505 0.48798555
-7.8353829 5.9576249 0.48927805
-7.838347 5.9646063 0.49728397
-7.8473229 5.9640489 0.49054861
-7.8555865 5.9647326 0.4823564
-7.8619628 5.9672408 0.47479448
-7.870564 5.9676733 0.47495991
-7.8792305 5.9670715 0.47497863
-7.8962059 5.9650364 0.49928129
-7.9006219 5.9689584 0.51228398
-7.9063325 5.9728112 0.50741661
-7.9146552 5.9737587 0.50055277
-7.924727 5.972033 0.4952935
-7.9364362 5.9685111 0.48662195
-7.945158 5.9681668 0.48599392
-7.9531293 5.9732609 0.49074745
-7.9595513 5.9794006 0.49395841
-7.9640188 5.9839559 0.50025105
-7.9720368 5.984479 0.5022276
-7.9816456 5.9837923 0.50175184
-7.9905877 5.9831715 0.50177115
-7.9994402 5.9819112 0.50450081
-8.0051794 5.98563 0.50215769
-8.0114746 5.989162 0.4990041
-8.0197182 5.9885893 0.49902189
-8.034626 5.9905462 0.50015968
-8.0438833 5.9897738 0.49979636
-8.0525093 5.989357 0.50166953
-8.0601711 5.9898419 0.50643826
-8.0675545 5.9915586 0.50616163
-8.0740299 5.994451 0.50375819
-8.0834436 5.9973855 0.50153023
-8.0883303 5.9973865 0.49987075
-8.1056786 5.9963827 0.49839732
-8.1129255 5.998076 0.49617806
-8.1204891 5.9998212 0.49034932
-8.1289215 5.9996357 0.48824248
-8.138732 5.9967203 0.49421874
-8.1476793 5.996047 0.49498412
-8.1559486 5.996141 0.49972931
-8.1647663 5.9958792 0.5024609
-8.1718531 5.9980612 0.49840406
-8.189311 5.9969087 0.49790651
-8.2005119 5.9939179 0.49280605
-8.209712 5.9931631 0.4872719
-8.2167263 5.9943557 0.48521027
-8.2278557 5.99439 0.48765224
-8.2313414 5.9958358 0.49693188
-8.2390518 5.996397 0.50363171
-8.2471151 5.997654 0.50175434
-8.2556448 5.9979038 0.50642347
-8.2684078 6.0003471 0.53377795
-8.2744961 6.0033379 0.53589261
-8.2822227 6.004601 0.52420348
-8.2902374 6.0054164 0.51480168
-8.2984753 6.0063686 0.50399429
-8.3073587 6.0057516 0.50401348
-8.3137074 6.0083423 0.51103854
-8.3222523 6.0077929 0.51671422
-8.3317738 6.0074825 0.51815325
-8.3399649 6.007658 0.51797962
-8.3470926 6.0107074 0.50975233
-8.3634729 6.0095696 0.50978768
-8.3715067 6.0110579 0.49620333
-8.3788128 6.01261 0.49231607
-8.3844156 6.0159163 0.49198952
-8.3930035 6.0160756 0.4921295
-8.3970842 6.0206876 0.50223356
-8.4138145 6.0206547 0.50654018
-8.4226971 6.0200377 0.50655931
-8.4259529 6.0272536 0.49875742
-8.4283714 6.0359106 0.49204025
-8.4374905 6.0352774 0.49205995
-8.4466324 6.0348105 0.48528856
-8.4528704 6.0383048 0.47956717
-8.4602919 6.0416942 0.47449595
-8.4679184 6.0409317 0.47740462
-8.4777613 6.0387006 0.48292845
-8.493247 6.037746 0.4849014
-8.4977112 6.0421567 0.49003196
-8.5038748 6.0448346 0.48944294
-8.5080986 6.0514493 0.48603377
-8.5179758 6.0491519 0.48056191
-8.5369234 6.0459371 0.47717246
-8.5472279 6.042841 0.47606534
-8.5642233 6.0307102 0.47631589
-8.5731459 6.0300903 0.47633514
-8.5759029 6.0369244 0.49175054
-8.5787401 6.0445175 0.49866936
-8.5911808 6.0395994 0.49155721
-8.6020851 6.0385079 0.49004745
-8.6081533 6.0402637 0.4836227
-8.6149025 6.0426307 0.48397991
-8.6319075 6.0414333 0.48546839
-8.6409292 6.040215 0.48227131
-8.6440592 6.0471702 0.48515847
-8.6528835 6.0465569 0.48517752
-8.6579952 6.0502448 0.49200577
-8.6675758 6.0495796 0.49202645
-8.6718712 6.0545788 0.49622071
-8.6869516 6.0574679 0.49752945
-8.6918135 6.0626974 0.49477202
-8.6990337 6.0644932 0.49218982
-8.7073631 6.0641003 0.49173123
-8.7144489 6.0660863 0.489131
-8.721221 6.0684123 0.49430421
-8.7296448 6.0689635 0.49473351
-8.7368937 6.07095 0.49314627
-8.745225 6.0707393 0.49419427
-8.7620573 6.0695701 0.4942306
-8.766057 6.0757914 0.49503061
-8.7685337 6.0844607 0.4894813
-8.7746429 6.0883245 0.47593239
-8.7850552 6.0867572 0.45736971
-8.7973938 6.0821462 0.45183775
-8.8032589 6.0851817 0.45305514
-8.8015661 6.0983133 0.47381145
-8.8201571 6.0970221 0.47385156
-8.834466 6.0881963 0.47816822
-8.8434877 6.0887547 0.46732968
-8.8442879 6.0989337 0.47083932
-8.8521767 6.0994501 0.47051603
-8.8593645 6.1012268 0.46954641
-8.8700695 6.0976629 0.46510434
-8.8823719 6.0964203 0.46313033
-8.8834772 6.1010494 0.46459377
-8.8995781 6.1028361 0.46850678
-8.9078836 6.1028728 0.46885547
-8.9133911 6.1072187 0.4691329
-8.921999 6.1066208 0.46915147
-8.918808 6.1233249 0.4696829
-8.9272938 6.1243849 0.46663398
-8.9361105 6.1241632 0.46106416
-8.9452486 6.1235285 0.46108389
-8.9537611 6.1238337 0.45439276
-8.9674063 6.1283245 0.4552137
-8.9714909 6.1333766 0.46741945
-8.9769125 6.1376452 0.4731026
-8.9806747 6.1447792 0.47451082
-8.9763298 6.1513691 0.46953288
-8.9902878 6.1546993 0.46309462
-8.9983644 6.1548958 0.45932439
-9.0078192 6.1540289 0.45000044
-9.0228338 6.1562219 0.44816896
-9.0280914 6.1610169 0.45225233
-9.032897 6.1661987 0.45487484
-9.0362511 6.1736989 0.45527333
-9.039217 6.1811614 0.45812884
-9.0481997 6.1807766 0.45778391
-9.0582724 6.1798053 0.44751501
-9.0621853 6.1895738 0.42226553
-9.0634966 6.198751 0.40495545
-9.0784397 6.2000713 0.39995244
-9.0892143 6.1964111 0.40195152
-9.0984793 6.1957674 0.40197152
-9.1088343 6.1976447 0.39823005
-9.1048422 6.2101517 0.40006173
-9.1134443 6.2094598 0.40859538
-9.1245747 6.2054324 0.4087424
-9.1326971 6.2069221 0.39976835
-9.1303225 6.2237296 0.38408786
-9.1483831 6.2224755 0.38412684
-9.1416607 6.2449517 0.37478921
-9.1366558 6.2645192 0.37834096
-9.1279316 6.2881374 0.38547489
-9.1349754 6.2903886 0.38695511
-9.1263618 6.3139668 0.39493689
-9.1214075 6.3324652 0.39836073
-9.1189404 6.3483381 0.39217654
-9.1192179 6.3600173 0.38902545
-9.1176796 6.3741655 0.39066446
-9.1237946 6.3877182 0.39286402
-9.1186476 6.4056616 0.39300144
-9.1235323 6.4104285 0.39204404
-9.116848 6.4324298 0.39294657
-9.1040602 6.4616084 0.39182314
-9.0928497 6.4892306 0.39883578
-9.0862732 6.5093236 0.40265048
-9.0788155 6.5426207 0.40792114
-9.0833073 6.5477719 0.40835977
-9.0617733 6.5884318 0.40678626
-9.0373974 6.6326771 0.40124387
-9.026433 6.6583452 0.39333633
-9.0127916 6.6870022 0.39566684
-9.0051384 6.7078977 0.40175471
-8.9837837 6.7458673 0.41615567
-8.9883499 6.754559 0.41862988
-8.9620934 6.8061318 0.42408562
-8.9433928 6.8412423 0.41845939
-8.924037 6.8782167 0.40778488
-8.9076452 6.909946 0.39981362
-8.8974123 6.9336157 0.39826974
-8.8774519 6.9687805 0.40003571
-8.88235 6.9730811 0.40154937
-8.8542156 7.0177951 0.42197934
-8.8249378 7.0639219 0.43056911
-8.8209591 7.089345 0.4291662
-8.8097754 7.1128058 0.43175235
-8.7860737 7.1528263 0.42674151
-8.7946625 7.1522298 0.42676005
-8.7649612 7.1983485 0.41578212
-8.7422094 7.2351804 0.41307119
-8.7251902 7.272243 0.41644484
-8.7098351 7.2986517 0.4108097
-8.7013674 7.3186011 0.40972945
-8.6851034 7.3474035 0.4072586
-8.689312 7.352138 0.40736547
-8.6586466 7.396811 0.41119429
-8.6225138 7.4483685 0.41158128
-8.5999012 7.4838901 0.4059085
-8.5720339 7.5249071 0.39693087
-8.5683146 7.548461 0.3938112
-8.5297651 7.6007853 0.38758531
-8.5336809 7.6056933 0.38746718
-8.498436 7.6526947 0.39961538
-8.4723721 7.6912551 0.39176702
-8.4469423 7.7282462 0.3764208
-8.4272194 7.7612333 0.37432596
-8.4085598 7.7940021 0.37952295
-8.3757925 7.8367462 0.38708708
-8.3734369 7.8478336 0.38969412
-8.3273811 7.9047785 0.39650321
-8.276412 7.9651961 0.40064758
-8.2508888 8.0000095 0.39341033
-8.222435 8.0373993 0.38154143
-8.2110567 8.0588856 0.37503248
-8.1607533 8.116416 0.36598215
-8.1696844 8.1157866 0.3660014
-8.1336737 8.1677141 0.3730112
-8.0853682 8.222743 0.37951586
-8.0325708 8.281496 0.37569261
-7.99019 8.3299665 0.36933792
-7.983994 8.3436365 0.36885893
-7.9305615 8.4042253 0.3707051
-7.935936 8.4038525 0.37071672
-7.8731575 8.4691658 0.37426704
-7.8348503 8.5193825 0.36805275
-7.7743864 8.5808992 0.36479118
-7.7832794 8.5802813 0.36481038
-7.7090292 8.6527672 0.37693253
-7.7177849 8.6521587 0.37695143
-7.6624813 8.706871 0.3912853
-7.5952969 8.7707815 0.4021596
-7.5244632 8.8371782 0.40795931
-7.49615 8.8680706 0.40149966
-7.4943805 8.8832922 0.3949599
-7.4428368 8.9325638 0.38352239
-7.3714385 8.9968834 0.3899354
-7.3182836 9.0476608 0.40270093
-7.2626276 9.0933847 0.42106146
-7.2312989 9.1291714 0.43505162
-7.1873889 9.1694851 0.43816689
-7.1733456 9.1863012 0.43994471
-7.1085219 9.2421045 0.43683401
-7.0561852 9.2883062 0.42797813
-7.001277 9.3361006 0.41333854
-6.9661036 9.3675957 0.40908238
-6.9195824 9.4078493 0.41674304
-6.9127302 9.4180679 0.41997126
-6.8362846 9.4838791 0.42551228
-6.7824183 9.5279703 0.42105833
-6.7327094 9.5681171 0.41629219
-6.6964712 9.599165 0.40313253
-6.6519537 9.6352549 0.39487338
-6.6048307 9.674119 0.39838719
-6.5753398 9.696269 0.40242156
-6.505538 9.747715 0.40153202
-6.4580755 9.789259 0.39091551
-6.416748 9.8213434 0.38340446
-6.3812428 9.8497562 0.3775014
-6.3151383 9.8969593 0.36858386
-6.3240509 9.8963394 0.36860308
-6.2366095 9.9554396 0.36825702
-6.1616316 10.00601 0.37735534
-6.1125402 10.040304 0.3737098
-6.0764222 10.066468 0.37561226
-6.0054383 10.11287 0.37387973
-6.0235691 10.111621 0.37391889
-5.9513717 10.158171 0.36654755
-5.8873453 10.195188 0.35263264
-5.8357015 10.23204 0.34841028
-5.8249855 10.241753 0.35037225
-5.7472196 10.292909 0.35732126
-5.7568984 10.292236 0.35734215
-5.6177568 10.371202 0.36489627
-5.5712261 10.399628 0.36424997
-5.5314102 10.42492 0.35559687
-5.4814539 10.454964 0.35058543
-5.4251661 10.487694 0.35054341
-5.4070363 10.501019 0.354958
-5.3181057 10.548849 0.36685106
-5.2539778 10.588045 0.36329284
-5.1996169 10.617892 0.36185509
-5.1681628 10.636724 0.3578783
-5.1069074 10.669811 0.34638616
-5.1196041 10.668949 0.34641361
-5.0243115 10.715531 0.33805311
-4.9218111 10.765162 0.34538633
-4.8575325 10.797121 0.34452391
-4.8402638 10.808009 0.34770617
-4.7920179 10.835594 0.34381989
-4.8010488 10.834976 0.34383941
-4.7183485 10.874348 0.32746947
-4.6128101 10.921773 0.32670894
-4.540659 10.954025 0.33987746
-4.5393128 10.957429 0.34142226
-4.4694757 10.988284 0.35605037
-4.3890309 11.022417 0.36244228
-4.3362222 11.048543 0.3566108
-4.2767797 11.074071 0.35238129
-4.2228141 11.094312 0.35177386
-4.1976089 11.108735 0.35521057
-4.1292696 11.135898 0.36847633
-4.115293 11.143447 0.3720673
-4.0439806 11.170935 0.39149874
-3.9697607 11.199406 0.40720791
-3.9043672 11.223689 0.41211247
-3.9006574 11.229889 0.40902922
-3.8118494 11.262018 0.40560231
-3.8208799 11.261391 0.4056218
-3.7535131 11.285946 0.40090367
-3.672399 11.313711 0.41197819
-3.5753565 11.346088 0.41752949
-3.5737104 11.348647 0.41750804
-3.5127571 11.369598 0.40953246
-3.420752 11.39937 0.39725673
-3.3391304 11.426616 0.40253663
-3.2749498 11.446375 0.40346432
-3.2238271 11.462259 0.4125089
-3.1658731 11.480114 0.40272146
-3.0863299 11.503209 0.39606509
-3.0570962 11.512886 0.3836109
-2.9669991 11.538089 0.3673501
-2.9083664 11.55429 0.36257175
-2.8658552 11.567668 0.36483079
-2.8116755 11.581426 0.38409626
-2.7392664 11.599276 0.39818203
-2.7378576 11.601063 0.40004361
-2.6334741 11.625607 0.40796486
-2.5604489 11.642894 0.40240446
-2.5009537 11.656854 0.39522293
-2.4541357 11.666601 0.390957
-2.3872585 11.68249 0.40280879
-2.4004159 11.681576 0.40283716
-2.3225513 11.697056 0.42677343
-2.2316914 11.714931 0.43216294
-2.1787961 11.725801 0.42379594
-2.1238074 11.736382 0.42619285
-2.0639253 11.747733 0.42200646
-2.0096574 11.757421 0.42954367
-1.9742984 11.763902 0.4309521
-1.8858203 11.778466 0.43598533
-1.8197783 11.789908 0.43613374
-1.7731481 11.797435 0.43435705
-1.7506561 11.801342 0.43357465
-1.6398832 11.817584 0.42180508
-1.6487956 11.816965 0.42182434
-1.5350461 11.832995 0.40130481
-1.4633636 11.842471 0.38279441
-1.3864945 11.851957 0.37253612
-1.3844614 11.852998 0.37157524
-1.2706403 11.865292 0.37436986
-1.279013 11.86472 0.37438795
-1.1759757 11.875018 0.37435827
-1.1103216 11.881501 0.3630119
-1.0283176 11.888963 0.3474566
-1.0371513 11.88835 0.34747568
-0.93284214 11.896791 0.33441466
-0.85849404 11.90202 0.33187726
-0.77246106 11.906887 0.34805855
-0.71239489 11.909957 0.35563198
-0.66307735 11.912298 0.35833988
-0.61236089 11.914872 0.35244069
-0.55286139 11.917201 0.34568515
-0.53300369 11.917789 0.34365964
-0.43749467 11.920691 0.34732994
-0.36251995 11.922065 0.36149189
-0.30226904 11.922805 0.36802077
-0.2878184 11.922036 0.37250632
-0.17651467 11.922749 0.38386071
-0.1745548 11.922226 0.38442817
-0.097172484 11.921878 0.39204392
-0.018123563 11.921073 0.39564165
0.057067297 11.919961 0.39308831
0.070901044 11.919146 0.39173093
0.18259215 11.916735 0.38872096
0.1651113 11.915521 0.38875869
0.23696172 11.91294 0.39361283
0.34523532 11.909472 0.40024039
0.41991752 11.90474 0.40449435
0.44192636 11.902791 0.40704787
0.51949674 11.897943 0.41562179
0.59875619 11.892298 0.42754146
0.67882878 11.88658 0.42434531
0.73492807 11.881968 0.41845649
0.78753257 11.876255 0.40445539
0.84870219 11.870804 0.39404958
0.89981836 11.865656 0.39012742
0.9317736 11.861701 0.39031234
1.0174453 11.852675 0.39588806
1.0684619 11.84644 0.39667955
1.1319945 11.838848 0.39354855
1.1963564 11.830888 0.38637277
1.2697563 11.821587 0.37857804
1.2626665 11.819335 0.37815577
1.334942 11.809204 0.38195741
1.4181606 11.797158 0.39104933
1.487821 11.786475 0.39599735
1.5103471 11.781588 0.39674744
1.6036301 11.766787 0.40355611
1.6034404 11.764899 0.40411794
1.6693844 11.753584 0.40335619
1.7381078 11.74126 0.40214574
1.7831973 11.729836 0.41134357
1.790879 11.726549 0.41419262
1.8439242 11.715669 0.42361429
1.8347956 11.715035 0.42363399
1.8887351 11.7041 0.42416352
1.9532362 11.691748 0.40318128
1.9697691 11.686234 0.39719209
1.9711934 11.685033 0.39643931
1.9999579 11.675828 0.39605045
2.0317674 11.667874 0.40370268
2.0594554 11.660431 0.41304296
2.0757499 11.655193 0.41572458
2.0918868 11.64991 0.41997287
2.1090679 11.644743 0.41192439
2.1235857 11.640059 0.4051902
2.128809 11.636993 0.40132636
2.1283782 11.632629 0.39624643
2.1475577 11.626863 0.38999686
2.159322 11.622184 0.39476654
2.1608996 11.619446 0.39658001
2.1746821 11.614507 0.39843404
2.1684299 11.613511 0.3987247
2.1807041 11.607758 0.39944986
2.1903572 11.60352 0.39478889
2.1967609 11.600372 0.38669303
2.1951597 11.598549 0.38218781
2.2073588 11.593952 0.37753966
2.2009954 11.592868 0.37744436
2.2028167 11.589889 0.38675269
2.2123046 11.58491 0.40784526
2.2118561 11.582365 0.41609231
2.1929083 11.581175 0.41751623
2.1831565 11.580661 0.41076049
2.1843982 11.578525 0.39918533
2.1855421 11.576411 0.38524446
2.1900232 11.573485 0.37769124
2.1917677 11.570982 0.37564969
2.1877093 11.568259 0.37872726
2.188319 11.566969 0.38461518
2.1718712 11.565613 0.38646641
2.1732461 11.562845 0.39209643
2.1926749 11.557365 0.37461466
2.1863148 11.556991 0.35101116
2.1663492 11.558774 0.34346354
2.1510084 11.559534 0.33474779
2.1427939 11.558964 0.33476552
2.1807399 11.548959 0.35014576
2.1784439 11.54707 0.3568013
2.1571157 11.546705 0.35013834
2.1461167 11.546476 0.34857702
2.1401165 11.545362 0.34444344
2.1455672 11.542048 0.34373876
2.1453514 11.539547 0.34922448
2.1349356 11.53841 0.35120204
2.140238 11.536024 0.35435739
2.1333797 11.535243 0.34838197
2.1290069 11.534009 0.33861589
2.1178157 11.532041 0.32620108
2.1131022 11.530712 0.32410777
2.1047218 11.529729 0.33320597
2.103981 11.527146 0.3449015
2.1070769 11.523838 0.35909355
2.0997019 11.522973 0.36025238
2.0913324 11.522329 0.35801706
2.0801094 11.522491 0.34384343
2.0845833 11.519518 0.33265239
2.0891182 11.5167 0.32145905
2.0730855 11.515287 0.32097122
2.0698152 11.515614 0.33121091
2.0534382 11.514225 0.3338075
2.0567746 11.511211 0.34315357
2.0619109 11.508076 0.34159175
2.0566139 11.506812 0.33433652
2.0515215 11.505818 0.32419112
2.0435126 11.503119 0.31647962
2.0342464 11.502476 0.31649962
2.0478861 11.49763 0.32359692
2.046454 11.495833 0.32304367
2.0153499 11.499473 0.32006037
2.0034435 11.499247 0.32162043
2.0142603 11.494408 0.33886278
2.0050728 11.49377 0.33888263
2.018162 11.488558 0.34619114
2.0147145 11.487447 0.34558684
1.9991452 11.48648 0.33639792
1.9907042 11.485893 0.33641616
1.9915291 11.483938 0.32407352
1.9904491 11.481604 0.33175069
1.9935414 11.478341 0.35283867
1.992762 11.475876 0.36685961
1.9891948 11.474104 0.37326577
1.9722863 11.472714 0.37502557
1.9652704 11.472105 0.36151031
1.9554993 11.471647 0.35954136
1.9522692 11.469957 0.3610009
1.9576873 11.466752 0.36285794
1.9543773 11.465089 0.36647931
1.9428269 11.464719 0.36898667
1.9248366 11.465524 0.37151012
1.9161208 11.464918 0.37152892
1.9128453 11.461604 0.36634561
1.9192222 11.458521 0.36234611
1.9141381 11.457461 0.36059046
1.9080334 11.456483 0.35892749
1.9114934 11.453976 0.34872949
1.9026891 11.453364 0.34874848
1.9013957 11.451689 0.34239146
1.8972998 11.450019 0.35006011
1.8904169 11.446865 0.35180864
1.8858373 11.445287 0.35140979
1.8753636 11.444869 0.34977996
1.8637021 11.444665 0.35009137
1.8636506 11.442847 0.3455148
1.8719354 11.440077 0.32891175
1.8700699 11.438562 0.32552633
1.8611432 11.436607 0.32340413
1.8578945 11.435285 0.3288883
1.8542169 11.433843 0.33253637
1.8468962 11.432873 0.33705074
1.838048 11.431907 0.3454394
1.837031 11.429772 0.35242215
1.8319985 11.428355 0.35506839
1.8277975 11.426811 0.35951146
1.8142095 11.425123 0.35250157
1.8090032 11.423795 0.35097685
1.8008376 11.423157 0.34736106
1.7940128 11.422035 0.35020986
1.7927656 11.419956 0.35786617
1.7910451 11.418014 0.36422715
1.7828473 11.417128 0.37309578
1.7740541 11.416317 0.37188384
1.760433 11.414946 0.36945516
1.7516878 11.414338 0.36947402
1.7522399 11.412553 0.36232898
1.7583439 11.409704 0.35774758
1.760344 11.407124 0.36407584
1.7531619 11.406146 0.36653683
1.7444787 11.405322 0.37165228
1.7367705 11.404176 0.37915665
1.7286203 11.403528 0.37986192
1.710127 11.401859 0.3904314
1.7193069 11.400182 0.39796901
1.7119765 11.3977 0.39016882
1.7135128 11.395862 0.38126838
1.7102304 11.394518 0.37841952
1.7103236 11.392715 0.372152
1.6985126 11.391895 0.37217748
1.7012914 11.390095 0.38038266
1.7038223 11.387302 0.39330378
1.6926218 11.385035 0.39797965
1.6865602 11.383805 0.40285465
1.6769093 11.383202 0.40121403
1.6743318 11.381839 0.39472669
1.6655861 11.381231 0.39474556
1.6735977 11.378275 0.38984385
1.6668849 11.377047 0.39790154
1.6590259 11.375854 0.40133959
1.6542873 11.373984 0.40628105
1.6393081 11.372721 0.40699288
1.6442925 11.369589 0.41933119
1.6358615 11.369003 0.4193494
1.6496692 11.367053 0.4161208
1.6391641 11.365284 0.40632281
1.6389834 11.363724 0.39836469
1.638008 11.362366 0.38935366
1.6332885 11.361141 0.38993856
1.6255915 11.358036 0.39888492
1.6166399 11.357414 0.39890423
1.6152203 11.355301 0.4100866
1.6094383 11.354379 0.40732497
1.5973657 11.354201 0.40644431
1.5875491 11.353519 0.4064655
1.6001505 11.349994 0.40094781
1.5920535 11.349431 0.40096527
1.60033 11.346724 0.3926172
1.5860624 11.345429 0.38600019
1.5796162 11.344437 0.38725001
1.5931082 11.342362 0.39081162
1.581336 11.340534 0.3894892
1.5823686 11.338355 0.39424598
1.5802325 11.33682 0.39437115
1.5745575 11.335725 0.39432925
1.5674365 11.334839 0.39363542
1.5695505 11.331314 0.37676483
1.571084 11.329515 0.36783054
1.5622004 11.328883 0.36772314
1.5480969 11.32865 0.37679663
1.5492343 11.326196 0.38709137
1.5427197 11.325183 0.38820848
1.5426371 11.323177 0.39164573
1.5406567 11.321859 0.38453218
1.5344954 11.321393 0.36873397
1.5269083 11.32083 0.36321053
1.5212226 11.318864 0.34887296
1.5138624 11.318353 0.34888884
1.5141748 11.316046 0.35926789
1.5188837 11.313272 0.36604962
1.5144925 11.31211 0.36917579
1.5032103 11.310045 0.36400616
1.4954889 11.309361 0.361444
1.4909985 11.308592 0.34668085
1.482681 11.307904 0.34685263
1.4849354 11.305684 0.34731457
1.491205 11.302895 0.3532339
1.4920123 11.301037 0.35325232
1.4857583 11.300058 0.35344273
1.4804115 11.299017 0.35576043
1.46295 11.297805 0.3557981
1.4749199 11.295752 0.36987194
1.4755481 11.291869 0.38244677
1.4728136 11.290455 0.38152379
1.4724966 11.288649 0.3827635
1.4681087 11.287502 0.37813962
1.4627317 11.286552 0.37360165
1.4540186 11.285923 0.37445146
1.4353014 11.283819 0.40293777
1.4253521 11.282455 0.42853361
1.4155486 11.281377 0.44494545
1.4047971 11.28107 0.44190651
1.3921553 11.280858 0.44170955
1.3832774 11.280757 0.42485967
1.3756559 11.280038 0.42321065
1.3862652 11.277388 0.40914175
1.3879302 11.275549 0.40849146
1.3757539 11.273563 0.41087946
1.3721019 11.272333 0.41124865
1.3694103 11.270935 0.41193345
1.36675 11.269481 0.4135277
1.3582208 11.268888 0.41354609
1.3643626 11.266231 0.41709366
1.3633198 11.264582 0.41701144
1.3601733 11.263198 0.41427824
1.3534275 11.262291 0.40761372
1.3361993 11.261817 0.38954827
1.3269722 11.261176 0.38956818
1.314613 11.261401 0.37798658
1.3266978 11.258121 0.38410428
1.3279479 11.255651 0.40349585
1.3224101 11.254397 0.41015586
1.3152552 11.253036 0.41056573
1.3198614 11.251768 0.40392241
1.3058641 11.250356 0.39977518
1.3098924 11.248793 0.38135672
1.3057132 11.247823 0.37415862
1.2999562 11.246499 0.38337082
1.2974068 11.244527 0.40144894
1.2926698 11.24265 0.42191553
1.2754375 11.242258 0.44105768
1.2666236 11.241646 0.44107673
1.2351089 11.243356 0.44784915
1.2427088 11.239256 0.44255829
1.2587869 11.235921 0.43533722
1.2581025 11.234827 0.42470577
1.2467567 11.234439 0.42636877
1.2415503 11.233252 0.43197718
1.2308298 11.232196 0.43418267
1.2442157 11.229488 0.44228235
1.2476941 11.227522 0.44075343
1.2389634 11.225406 0.43484786
1.2442672 11.224018 0.41339055
1.2391152 11.223375 0.40455025
1.2285521 11.22407 0.37132809
1.2190502 11.22341 0.37134859
1.2214719 11.22213 0.3519755
1.2248724 11.219638 0.36663452
1.2169547 11.21828 0.3844946
1.2118596 11.21693 0.39338693
1.2035923 11.214779 0.39303166
1.2074292 11.213139 0.38191247
1.1995342 11.212486 0.37960529
1.2044392 11.212545 0.36031926
1.1969782 11.210471 0.35559705
1.1987735 11.208348 0.36719039
1.1887838 11.207763 0.37020636
1.1791122 11.20694 0.37428832
1.1736993 11.205643 0.38191926
1.1662444 11.204597 0.38847876
1.1535206 11.20242 0.40120733
1.1575663 11.200165 0.41080102
1.1567936 11.198572 0.41380113
1.1491777 11.197614 0.41619557
1.1432073 11.196523 0.41966885
1.1445438 11.194894 0.41816735
1.1437123 11.193494 0.4174808
1.1378889 11.192703 0.4154081
1.1286404 11.191789 0.425046
1.1144222 11.189808 0.43788961
1.114961 11.187968 0.44484699
1.1191759 11.185915 0.44800869
1.1117612 11.185166 0.44769681
1.1058621 11.184679 0.43749887
1.1069591 11.183376 0.42574427
1.1059936 11.18207 0.41493714
1.1023893 11.181333 0.40953842
1.0856994 11.180012 0.40792105
1.0764823 11.179371 0.40794095
1.0715016 11.178267 0.41455138
1.0876912 11.17484 0.42239466
1.1084255 11.170926 0.42907861
1.1118466 11.169008 0.43082765
1.1369064 11.164866 0.42700604
1.1322989 11.163891 0.4256739
1.157379 11.158442 0.41554415
1.1997324 11.152145 0.41388959
1.2301481 11.146637 0.42652887
1.2375442 11.143895 0.43120715
1.2804867 11.1359 0.45816031
1.2775265 11.134645 0.46042338
1.3177843 11.127711 0.46979946
1.369996 11.119901 0.45688692
1.4219103 11.111844 0.44321752
1.4129509 11.109512 0.44061539
1.4699005 11.100075 0.43841988
1.5144079 11.091386 0.45138553
1.5599103 11.082268 0.46822354
1.6069514 11.073166 0.47408339
1.6539152 11.064387 0.46834725
1.6966193 11.055444 0.457917
1.733475 11.048578 0.44752386
1.7594483 11.042658 0.4397698
1.812077 11.029742 0.43714291
1.8646806 11.018696 0.43408731
1.9214708 11.006409 0.43719888
1.9623572 10.996665 0.43967682
2.0140932 10.984706 0.44414753
2.0047975 10.98406 0.44416758
2.0598385 10.971418 0.43745881
2.1370504 10.954331 0.43256119
2.1878643 10.939354 0.43143195
2.2046382 10.933619 0.42941621
2.2686293 10.917789 0.43029717
2.2588725 10.917102 0.43031821
2.3331742 10.900949 0.43424809
2.3942215 10.882396 0.44236875
2.4760044 10.860926 0.44770905
2.4752045 10.858379 0.4475705
2.5454755 10.838809 0.45240843
2.5944104 10.821627 0.44967765
2.6868861 10.796106 0.44066581
2.7439342 10.778421 0.43531978
2.8045959 10.759546 0.43688771
2.8471591 10.744927 0.4412137
2.8928926 10.72938 0.44684976
2.9082382 10.721654 0.44863605
2.9887712 10.696168 0.45213893
3.0737028 10.668348 0.44872028
3.123657 10.647531 0.44163188
3.1657796 10.631683 0.4384295
3.2020493 10.620578 0.4403953
3.2698874 10.593299 0.43996146
3.260385 10.592639 0.43998197
3.3467667 10.562072 0.43801343
3.41752 10.535011 0.44143933
3.4587433 10.517938 0.44794744
3.4903805 10.500866 0.44295549
3.5402892 10.480564 0.44135243
3.5971839 10.457392 0.43841162
3.616519 10.446968 0.44033772
3.6761372 10.421823 0.44942105
3.7418702 10.393819 0.46450314
3.7940018 10.370523 0.46991479
3.8468738 10.346292 0.4753089
3.8935266 10.324569 0.47820428
3.940949 10.302123 0.48139942
3.9392953 10.294872 0.48072946
4.0102215 10.263999 0.46081507
4.102613 10.223168 0.45066905
4.170661 10.191002 0.45225954
4.1889334 10.178823 0.45687228
4.280612 10.134275 0.48548037
4.271975 10.133676 0.48549899
4.3295507 10.099821 0.48464438
4.386642 10.07118 0.46651638
4.4653411 10.032558 0.44431391
4.4566154 10.031952 0.44433275
4.5802059 9.9713278 0.43714961
4.6243024 9.945303 0.4468455
4.6804566 9.9140072 0.45115036
4.7155004 9.8926315 0.44731399
4.7542348 9.867589 0.44241515
4.7811131 9.8471498 0.44050816
4.841876 9.8124762 0.4376215
4.8500814 9.8030987 0.43781233
4.9311395 9.7563114 0.45882419
4.9875102 9.7216787 0.4731324
5.0385981 9.6901522 0.4720673
5.036551 9.6864033 0.47050583
5.1077719 9.6438913 0.46230498
5.0980344 9.6432056 0.46232596
5.1701961 9.5942583 0.45569903
5.244895 9.5480804 0.45756054
5.3126044 9.5041199 0.47005036
5.3117461 9.4983644 0.4696818
5.3755784 9.4566336 0.47029939
5.4566588 9.4043484 0.46388531
5.5111871 9.3647661 0.45342925
5.5627451 9.3275604 0.43553787
5.6134167 9.2911501 0.42639092
5.6480155 9.2638674 0.43312451
5.6877809 9.2332439 0.43952429
5.7298617 9.2013607 0.43291724
5.7556181 9.1785116 0.43769675
5.7969775 9.1461964 0.43919906
5.8223124 9.1176205 0.44085833
5.8501387 9.0935211 0.44436651
5.8798313 9.0680313 0.4431428
5.9136233 9.0392618 0.44228786
5.9413118 9.0152073 0.43284044
5.9564643 8.9985542 0.43169078
5.9782553 8.9776392 0.43018508
5.9900169 8.9606705 0.43144485
6.0110226 8.9425392 0.43783733
6.0096941 8.930109 0.44041207
6.0364909 8.9051542 0.45094588
6.0278831 8.9045563 0.45096445
6.0396647 8.8897314 0.44776633
6.0595183 8.8699684 0.4459888
6.0803528 8.8495703 0.43929106
6.0717649 8.8489742 0.4393096
6.0920196 8.8285761 0.44051173
6.089345 8.8167248 0.44215637
6.1032047 8.7998133 0.45183399
6.1055064 8.7913065 0.45390078
6.1116529 8.7805061 0.45474344
6.1151161 8.7715902 0.4489108
6.1266403 8.7568979 0.44128543
6.1182632 8.7535973 0.4381761
6.1293626 8.7411795 0.43625653
6.1364212 8.7307196 0.43091309
6.1285272 8.7230129 0.43040052
6.1213875 8.7205868 0.43370268
6.1230016 8.7125397 0.44222787
6.1142468 8.7119322 0.44224676
6.1231065 8.6987352 0.44347385
6.1298141 8.687048 0.44884729
6.1358619 8.6756849 0.44366786
6.1325946 8.6706772 0.44192004
6.1264319 8.6681871 0.44345891
6.113193 8.6642103 0.43882048
6.1155062 8.6557636 0.43601626
6.1158385 8.6478882 0.43377963
6.1278849 8.6388502 0.4436273
6.1196399 8.630559 0.44946039
6.1445289 8.6065388 0.45490333
6.1355085 8.6059122 0.4549228
6.1659083 8.5776443 0.44697282
6.1856904 8.556757 0.43466777
6.1929636 8.5371923 0.42681667
6.1953082 8.5283184 0.42578557
6.2196908 8.5036592 0.42406765
6.2100706 8.5029907 0.42408839
6.2437325 8.4707842 0.43673384
6.2724876 8.4420147 0.4413152
6.2910228 8.4207773 0.44384035
6.2823958 8.4201775 0.44385898
6.3000913 8.4002571 0.4322387
6.3186345 8.378808 0.42632264
6.3250999 8.3601065 0.42766237
6.3340645 8.3465452 0.42954922
6.3499408 8.3272171 0.42634937
6.3717337 8.3033161 0.42535898
6.3892269 8.2825546 0.42665905
6.3974414 8.269063 0.42494681
6.407403 8.2466373 0.42291427
6.4223552 8.227499 0.42382962
6.442225 8.2042742 0.4244245
6.4533997 8.1876907 0.42076775
6.4703784 8.1667967 0.41349378
6.4773107 8.1535254 0.41108093
6.5012765 8.1270075 0.40782553
6.5188699 8.1052494 0.40615946
6.5369339 8.0823755 0.40576783
6.5436831 8.0676441 0.40882102
6.5687294 8.0338497 0.40751126
6.5657878 8.0283165 0.40740708
6.6105042 7.9835982 0.40233847
6.6375618 7.9529634 0.40143675
6.6638098 7.923111 0.39556989
6.663445 7.9155064 0.39531001
6.6968036 7.8775249 0.40160739
6.7233891 7.8479505 0.40161869
6.7353315 7.8215284 0.39996597
6.7640615 7.7889624 0.39382437
6.7882218 7.7595344 0.3913016
6.8084273 7.7330689 0.3949714
6.8239107 7.7105103 0.39218563
6.8236637 7.7019892 0.39382103
6.8501897 7.6689706 0.39842832
6.8615265 7.6465802 0.40725961
6.8806715 7.6160278 0.41218457
6.9051499 7.5861292 0.40874362
6.932682 7.5520124 0.40280762
6.9367986 7.5399113 0.40050107
6.9609575 7.5092311 0.39668706
6.9960785 7.4674459 0.40003857
7.0153384 7.4396386 0.39660728
7.0293636 7.4175954 0.39650318
7.0363193 7.4023004 0.39074498
7.0425076 7.3796682 0.38269034
7.0466595 7.3668637 0.38339928
7.0683575 7.3363614 0.3821314
7.102066 7.294467 0.39196622
7.132421 7.2558041 0.39891711
7.1621222 7.2265348 0.39829174
7.1664119 7.2043433 0.39099187
7.1863117 7.1749411 0.38950193
7.1968083 7.1550555 0.38767162
7.2260628 7.1060381 0.38871333
7.2428288 7.0784879 0.40139028
7.2567987 7.0539494 0.41784918
7.2807512 7.0191636 0.42531422
7.3108459 6.9779177 0.42449319
7.3070998 6.9719143 0.42320767
7.3333354 6.9348164 0.41140786
7.3640141 6.8909383 0.40957093
7.3971972 6.8451376 0.41222128
7.4239359 6.8053584 0.41527197
7.4371729 6.7701588 0.41764149
7.4649034 6.7395892 0.41812405
7.4619403 6.7315702 0.41723001
7.4817367 6.6917181 0.41050637
7.5195003 6.6392126 0.40069109
7.5479488 6.5956478 0.39695713
7.5457654 6.5875316 0.39865249
7.5726891 6.5346875 0.4079161
7.56357 6.5340543 0.40793577
7.5965071 6.4848194 0.4073655
7.6338396 6.4300594 0.40355963
7.6632123 6.3841786 0.40480998
7.6543002 6.3835597 0.4048292
7.6871567 6.3325553 0.40271345
7.7148232 6.2867832 0.41258785
7.704761 6.2860842 0.41260955
7.7375178 6.2238922 0.42393818
7.7867169 6.1622992 0.42559674
7.803771 6.1184154 0.42600653
7.7987003 6.1119537 0.42640123
7.8346987 6.0536599 0.42745557
7.8255997 6.0530281 0.42747521
7.8713846 5.9815269 0.42197946
7.9072261 5.9225507 0.42035019
7.9341526 5.873785 0.42134455
7.9420547 5.8370113 0.42123643
7.945857 5.8195858 0.42223814
7.98242 5.7575827 0.41881183
7.9736843 5.7569757 0.41883069
8.0090437 5.6957049 0.4088985
8.0367451 5.6434436 0.40542543
8.0561733 5.6032305 0.40460476
8.074605 5.5635762 0.40311813
8.0723791 5.5406246 0.40175152
8.0987434 5.4879889 0.40117106
8.0947542 5.4808669 0.40159437
8.1209555 5.4289136 0.40735888
8.1425419 5.3828459 0.40938479
8.1625729 5.3374133 0.41277739
8.1538477 5.3368073 0.41279623
8.181036 5.2804179 0.41677335
8.171917 5.2797847 0.41679302
8.2165823 5.181004 0.41791648
8.2290211 5.1454101 0.41689378
8.2467375 5.102386 0.42141151
8.2583256 5.068562 0.42663914
8.272296 5.0317521 0.4278703
8.2690458 5.0224619 0.42774975
8.2830982 4.9835277 0.42869276
8.2949724 4.943306 0.430976
8.2989531 4.9145288 0.43276191
8.2946892 4.9065957 0.43249741
8.3072081 4.8698778 0.43085095
8.2985125 4.8692741 0.43086973
8.3118734 4.8309212 0.43621197
8.3237791 4.7957397 0.43626377
8.3299217 4.7685151 0.43793142
8.321579 4.7679358 0.43794942
8.3283129 4.7400727 0.44334742
8.3330975 4.7157507 0.44492343
8.3216352 4.7040462 0.44485521
8.3168592 4.6947656 0.44839823
8.3174152 4.6773715 0.44870198
8.318717 4.6592641 0.44976172
8.3185043 4.6371908 0.4520359
8.3105221 4.6317883 0.45168859
8.3073359 4.6211228 0.45355296
8.3044214 4.609509 0.45792201
8.3066998 4.5892987 0.45891392
8.2999268 4.5846539 0.45931154
8.2981405 4.5702457 0.46198961
8.2934151 4.5623398 0.45627412
8.2860003 4.556376 0.45605487
8.288825 4.5347214 0.45814326
8.2890091 4.5176487 0.45991737
8.2789869 4.5007377 0.46782315
8.2712994 4.4983616 0.46995977
8.2640705 4.4940953 0.47896603
8.2556877 4.4929929 0.46927118
8.2534542 4.480165 0.46355855
8.2486858 4.4655972 0.46330208
8.2491827 4.4569049 0.45745754
8.2365808 4.4470334 0.455594
8.2279243 4.4464321 0.45561269
8.2232122 4.4383659 0.45636588
8.2207699 4.4269476 0.45129511
8.2119856 4.4263372 0.45131406
8.2096415 4.4139795 0.45606613
8.2056046 4.4046693 0.45318395
8.1982946 4.3996196 0.45379391
8.1878548 4.3990965 0.45433289
8.1696501 4.4020314 0.44806966
8.1609144 4.4014249 0.4480885
8.1563244 4.3930345 0.44433817
8.1564264 4.3742414 0.45071298
8.154994 4.3539662 0.45097965
8.1604643 4.3353729 0.44908193
8.1555471 4.327476 0.45092446
8.1607399 4.3000116 0.45368364
8.1529932 4.2964044 0.4531956
8.1497164 4.266551 0.45236805
8.1600046 4.2284856 0.4545702
8.1648779 4.2006021 0.45922565
8.1660128 4.1803293 0.45890468
8.1641235 4.1658378 0.46025476
8.1668062 4.141048 0.46407884
8.1594219 4.1376853 0.46462005
8.1634045 4.112586 0.46638662
8.1635666 4.0772114 0.45871356
8.1700563 4.04881 0.44308853
8.1851368 4.0195565 0.43323731
8.1761637 3.9997764 0.43581179
8.1827631 3.9680033 0.44215643
8.1766987 3.9622445 0.44246769
8.1885643 3.9197578 0.44509691
8.194788 3.8848152 0.44762903
8.2001343 3.8544085 0.44835106
8.1826925 3.8531971 0.4483887
8.1881514 3.8231168 0.44594768
8.1925602 3.7942557 0.44440109
8.1863174 3.7875392 0.44542113
8.192668 3.7541509 0.45171413
8.19345 3.7345202 0.44705939
8.1856356 3.7308872 0.44684821
8.1887722 3.7051582 0.4477053
8.1890926 3.6851566 0.44775376
8.1868668 3.6704962 0.44852564
8.1769199 3.6562963 0.4474782
8.1733179 3.6426198 0.44809318
8.1645136 3.6420083 0.44811216
8.1611862 3.6287382 0.45051259
8.1578112 3.6163623 0.45243034
8.1547871 3.6015954 0.45116299
8.1519203 3.5890613 0.45272887
8.1481218 3.5767112 0.4541539
8.1340027 3.5673075 0.45429245
8.1297455 3.5556202 0.45670998
8.123456 3.54931 0.45688954
8.1189499 3.5398099 0.45378664
8.1132536 3.533205 0.45084429
8.1069727 3.5248399 0.45615822
8.1035767 3.5126619 0.45784596
8.0971251 3.4988496 0.45976326
8.0867805 3.489254 0.46351957
8.0786982 3.4874434 0.4635981
8.0703955 3.4854925 0.46278161
8.0636911 3.479403 0.45804465
8.0582457 3.4707549 0.45786038
8.050849 3.4664152 0.45779631
8.0480976 3.4523361 0.45860565
8.0374165 3.4515941 0.45862868
8.0380144 3.4328578 0.45914915
8.0301456 3.4091723 0.45692474
8.0297976 3.3884251 0.45395574
8.0225868 3.384407 0.45368385
8.0238943 3.3597412 0.45468688
8.01511 3.3591311 0.45470583
8.0262804 3.3330884 0.4517056
8.0153399 3.3172934 0.44565031
8.0115023 3.305829 0.44655365
7.9982147 3.2935374 0.44777659
7.9920616 3.2864482 0.44797939
7.9926043 3.2637656 0.44983417
7.9885607 3.2511828 0.45124897
7.9816389 3.2452528 0.44995052
7.9786043 3.2302198 0.44461289
7.9698296 3.2296104 0.44463181
7.9657116 3.2179649 0.43601775
7.9605341 3.2086744 0.43348521
7.9509563 3.1882446 0.43636987
7.9510374 3.1663175 0.43449074
7.9496984 3.148241 0.43118158
7.9442616 3.1371777 0.43063658
7.9405432 3.1149623 0.42914194
7.9378519 3.1093342 0.42824912
7.9443388 3.0685546 0.42725086
7.9449835 3.0454383 0.42691579
7.9339886 3.0245249 0.42630905
7.9300027 3.0118573 0.42715737
7.9280586 2.9936271 0.42988169
7.9190083 2.9929986 0.42990124
7.9198022 2.9668398 0.4358272
7.920342 2.9420218 0.43252456
7.9175296 2.9270091 0.42981783
7.9096756 2.9221623 0.42877567
7.9076419 2.9051747 0.42546925
7.8903975 2.9039769 0.42550647
7.8877115 2.8890178 0.42110419
7.8949809 2.8693137 0.42185774
7.8821425 2.8548341 0.42855507
7.8748736 2.8510995 0.42968908
7.8695583 2.8405583 0.43069607
7.8606262 2.8399379 0.43071535
7.8587275 2.8182843 0.4281598
7.8530364 2.8091469 0.42807442
7.8371263 2.8023386 0.42660797
7.8307552 2.7937546 0.42550108
7.8233085 2.7896934 0.42504355
7.8188109 2.7787371 0.42400381
7.812367 2.7728605 0.42529666
7.8056784 2.7665985 0.42675382
7.8002014 2.7557251 0.4257609
7.7945452 2.7458944 0.4273425
7.7877603 2.7400301 0.42859444
7.7711382 2.7387464 0.4279024
7.7636137 2.7355824 0.42484432
7.7567306 2.7294779 0.42232928
7.7499585 2.7220411 0.42346209
7.7425733 2.7170939 0.42539689
7.735333 2.7116995 0.42851457
7.7260075 2.7110517 0.42853469
7.7194071 2.705538 0.4321095
7.7045875 2.6974814 0.42769974
7.6969829 2.6915457 0.42570987
7.6888652 2.6887925 0.42431527
7.6815281 2.6842864 0.42111123
7.673038 2.6836967 0.42112955
7.6665463 2.6775725 0.42005715
7.6597729 2.6697373 0.42258886
7.6526523 2.6644084 0.42413446
7.6422029 2.6592016 0.42870784
7.6291075 2.6561377 0.42921942
7.6219559 2.649992 0.43009967
7.6125031 2.6493354 0.43012008
7.6043591 2.646286 0.4285216
7.5948806 2.6465149 0.42787164
7.5873599 2.6430676 0.42797577
7.5799394 2.6387455 0.42897925
7.5723128 2.6355364 0.43094406
7.5664816 2.6261816 0.43592912
7.5486765 2.6249449 0.43596753
7.5449729 2.6094463 0.43759763
7.5434499 2.5876555 0.43534487
7.5414863 2.5671763 0.43230814
7.5323181 2.5665395 0.43232793
7.5271053 2.5461893 0.4322201
7.5293689 2.5242329 0.42924351
7.5237923 2.5122802 0.43163338
7.5092239 2.5023942 0.43582878
7.5120873 2.4936886 0.43742219
7.5022101 2.4692767 0.44057858
7.49541 2.4631598 0.44085827
7.4951854 2.4371104 0.43732613
7.4942164 2.4122307 0.43074006
7.4874086 2.4058039 0.43010333
7.4855342 2.3819644 0.42949674
7.4846234 2.3568196 0.4311997
7.4724445 2.3399053 0.43539202
7.4673409 2.3265727 0.43862092
7.4617729 2.3160763 0.43912077
7.4673648 2.2984562 0.43869767
7.4577036 2.2729478 0.43832925
7.4559793 2.250097 0.43609765
7.4541845 2.2259657 0.43411979
7.4512444 2.2060912 0.43362895
7.4392667 2.1846087 0.43579897
7.432137 2.1761236 0.43792054
7.4300237 2.1527696 0.44088849
7.4264698 2.1356556 0.44149673
7.4225674 2.119395 0.44232672
7.4175353 2.1063733 0.44063935
7.4121857 2.0925102 0.4375523
7.4051719 2.0853784 0.43679145
7.4016361 2.0674486 0.43338573
7.3884983 2.0531113 0.43222991
7.3831134 2.0406828 0.43336457
7.3856072 2.031574 0.43483838
7.3713698 2.0184553 0.43950436
7.3656287 2.0077474 0.44056681
7.3588734 1.9990616 0.44331679
7.3524714 1.9877164 0.44670829
7.3456435 1.9793158 0.44318902
7.3385515 1.9732628 0.43772706
7.322803 1.965868 0.43332273
7.3158112 1.9578936 0.43169349
7.3071442 1.9572916 0.43171218
7.3011742 1.9472694 0.43335739
7.296062 1.9340951 0.43344006
7.2901735 1.9241266 0.4355579
7.2825236 1.919022 0.43705395
7.2736816 1.9159108 0.43817267
7.2666821 1.9094648 0.43707284
7.2503939 1.9062653 0.43600199
7.2439718 1.8976283 0.43281329
7.2366309 1.8910633 0.43248713
7.2287269 1.8858964 0.43361506
7.2203407 1.8838284 0.43541247
7.2133241 1.8780679 0.43790001
7.2040777 1.8774256 0.43791997
7.1973333 1.8706872 0.43762821
7.1811781 1.8625587 0.4368718
7.1739688 1.855953 0.43560362
7.1654019 1.8546004 0.43082118
7.1568079 1.8538688 0.42999578
7.1491365 1.8486756 0.42739397
7.1423049 1.8390126 0.42815736
7.134768 1.8335818 0.42973632
7.123745 1.8293518 0.43275076
7.1195064 1.8260318 0.43418989
7.1115913 1.8214002 0.43594724
7.0945911 1.8165363 0.43872955
7.0865822 1.8137109 0.43788984
7.0789251 1.8103106 0.42922252
7.0702896 1.8071707 0.42766133
7.0617819 1.8047998 0.42917216
7.0539489 1.8009355 0.42859358
7.0463643 1.7967366 0.43089944
7.0392861 1.789135 0.43478075
7.0219378 1.7855613 0.43642637
7.0133214 1.7830472 0.43895885
7.0054035 1.7787457 0.43648049
6.9977407 1.7748674 0.43205291
6.9895067 1.7712208 0.42876327
6.9780521 1.7676015 0.42649993
6.9740028 1.7624456 0.42502138
6.964313 1.7577929 0.4272199
6.9501586 1.7525506 0.42476428
6.9422388 1.7504498 0.42125776
6.9348435 1.7439797 0.42355609
6.9271259 1.7379273 0.42616752
6.9199786 1.7319685 0.42393073
6.911778 1.7300438 0.42235419
6.9041257 1.725185 0.41716722
6.8951621 1.7216337 0.41730294
6.8872061 1.7181097 0.41907087
6.8703556 1.7146097 0.41977358
