# .PCD v0.7 - Point Cloud Data file format
VERSION 0.7
FIELDS x y z
SIZE 4 4 4
TYPE F F F
COUNT 1 1 1
WIDTH 1528
HEIGHT 1
VIEWPOINT 0 0 0 1 0 0 0
POINTS 1528
DATA ascii
-3.9831505 5.0574818 0.33089527
-3.9858272 5.0626698 0.32492003
-3.9881318 5.0681548 0.31946716
-4.0050068 5.0685358 0.31883016
-4.0081339 5.073832 0.31317726
-4.0167031 5.073832 0.31317726
-4.0172253 5.0801969 0.3178443
-4.0248351 5.080698 0.32697558
-4.0325646 5.0813823 0.32779384
-4.0419617 5.0813823 0.32779384
-4.0433364 5.0872636 0.32427779
-4.0516882 5.0950603 0.32039255
-4.0598731 5.095561 0.32030198
-4.0637407 5.0992422 0.32512289
-4.073595 5.1004243 0.3320058
-4.0782194 5.100616 0.33492506
-4.0867348 5.1010389 0.33466581
-4.0875993 5.1074648 0.33229518
-4.0965333 5.1074648 0.33229518
-4.1086149 5.1124873 0.33373028
-4.1066241 5.1204596 0.33890224
-4.1004605 5.1331434 0.33636677
-4.103384 5.1378646 0.33585098
-4.0977178 5.1494989 0.3323687
-4.1063757 5.1494989 0.3323687
-4.1044178 5.1585927 0.32807326
-4.1032734 5.1668758 0.33157
-4.1026802 5.1740766 0.33893546
-4.1201344 5.1740766 0.33893546
-4.1099052 5.1819339 0.34306693
-4.118268 5.1887517 0.3441751
-4.1187558 5.1956143 0.3411015
-4.1217256 5.2004995 0.33405784
-4.1264887 5.204155 0.33159328
-4.1298432 5.2083564 0.33318844
-4.1342454 5.2118602 0.33829927
-4.1418128 5.212925 0.33946544
-4.1453218 5.2164979 0.34658107
-4.1559339 5.222312 0.34693637
-4.1559243 5.229229 0.34774271
-4.1545653 5.2375913 0.34441802
-4.1530089 5.2458396 0.34051713
-4.1490307 5.256319 0.33997449
-4.1557593 5.2580132 0.34002301
-4.1442184 5.274034 0.34061277
-4.1451688 5.2804685 0.33926195
-4.1593099 5.2829094 0.33935049
-4.1644583 5.2859321 0.33485937
-4.1687274 5.2896404 0.3367314
-4.1710973 5.2945275 0.33568063
-4.1727657 5.3000355 0.33718586
-4.1692076 5.3097177 0.3379581
-4.1695156 5.3166065 0.33667672
-4.1712031 5.3222766 0.33388379
-4.1830497 5.3265738 0.3318173
-4.1910238 5.3270984 0.33500427
-4.196279 5.3297539 0.33614856
-4.202806 5.3316307 0.33735126
-4.2011161 5.3399692 0.34025925
-4.2015362 5.3465376 0.34076223
-4.20574 5.3507032 0.33334893
-4.2195101 5.3523755 0.32726833
-4.221477 5.3571739 0.32276413
-4.2295675 5.3581524 0.32248145
-4.23419 5.3611808 0.32566437
-4.2378917 5.3649411 0.33118141
-4.2422781 5.3683472 0.33275095
-4.2475343 5.3708301 0.33623719
-4.2550092 5.3716254 0.33601376
-4.2691011 5.3747897 0.33503863
-4.2772117 5.3754134 0.3342869
-4.2764816 5.3834591 0.32775387
-4.2820425 5.3862286 0.32178158
-4.2921753 5.3859587 0.31843394
-4.2999749 5.3866878 0.31823257
-4.3075223 5.3876328 0.32125324
-4.3165255 5.3876328 0.32125324
-4.3311434 5.3890471 0.32826462
-4.3333263 5.3941698 0.33570021
-4.3373871 5.3983006 0.33420402
-4.3450403 5.3993192 0.33222595
-4.3481116 5.4043083 0.32244506
-4.3569965 5.4043083 0.32244506
-4.3659739 5.4046402 0.31610104
-4.3709769 5.4078112 0.32003981
-4.3746724 5.4114518 0.32881632
-4.392097 5.4114518 0.32881632
-4.4009275 5.4110956 0.33573046
-4.4091153 5.4121976 0.33617267
-4.4132786 5.4161749 0.33072633
-4.4180565 5.4198003 0.32672319
-4.422318 5.423378 0.32609159
-4.4314203 5.4259458 0.32714799
-4.4374375 5.4265895 0.32904205
-4.453702 5.4264183 0.32823977
-4.4619555 5.4262381 0.3350448
-4.4644661 5.4310408 0.3407222
-4.4678125 5.4354753 0.34485197
-4.4738269 5.4378209 0.34435552
-4.478478 5.4416509 0.33745667
-4.4870276 5.4416509 0.33745667
-4.4880958 5.4491258 0.32892412
-4.4848151 5.4586935 0.33017686
-4.482357 5.4682837 0.33395886
-4.4962406 5.4716778 0.33522007
-4.4885731 5.4853821 0.33646438
-4.497901 5.4853821 0.33646438
-4.4890375 5.4927597 0.33447003
-4.4911218 5.5051885 0.33566803
-4.4858031 5.5168185 0.33549568
-4.4862299 5.5246692 0.33535537
-4.4904132 5.5276556 0.33579129
-4.4945502 5.5321884 0.33462164
-4.5118766 5.5321884 0.33462164
-4.511363 5.5398335 0.33378103
-4.5025482 5.5536942 0.33532533
-4.4977279 5.5647144 0.33712819
-4.5024977 5.5684733 0.33754754
-4.4927273 5.5830712 0.34151879
-4.4893923 5.5936446 0.33738396
-4.4949369 5.5957747 0.33606678
-4.4869776 5.6104989 0.32928896
-4.4824848 5.6211905 0.32729501
-4.4797235 5.6306047 0.32913181
-4.4824867 5.6418686 0.33085811
-4.4825253 5.6485696 0.3322098
-4.4714937 5.6636462 0.33748871
-4.4664035 5.6749215 0.33893406
-4.4645891 5.6835532 0.33393201
-4.4741831 5.6896186 0.33221763
-4.471005 5.6991978 0.33098042
-4.478075 5.7007852 0.33060074
-4.4698105 5.7146835 0.32721224
-4.4655852 5.7246075 0.33154416
-4.4671006 5.7303095 0.32801732
-4.4742866 5.7315764 0.32730746
-4.4777403 5.7349148 0.3397018
-4.4871469 5.7349148 0.3397018
-4.4870558 5.742722 0.32986823
-4.4893808 5.7543755 0.31620371
-4.4898868 5.7608318 0.31577626
-4.4985447 5.7608318 0.31577626
-4.496767 5.7688208 0.32077771
-4.4906464 5.7805662 0.32182533
-4.4838209 5.792994 0.31548953
-4.4844084 5.7992868 0.3117398
-4.4880071 5.8039417 0.30947685
-4.4974756 5.8102746 0.30967021
-4.5050116 5.8114619 0.30973905
-4.5023379 5.8202958 0.30979449
-4.5010281 5.8283429 0.30779004
-4.5041943 5.8332553 0.30348173
-4.5080633 5.8372927 0.30023977
-4.5131493 5.841156 0.2988269
-4.5166364 5.8473492 0.30270192
-4.5230107 5.8515415 0.30922633
-4.5233912 5.8579836 0.30974507
-4.5265045 5.8620901 0.31283426
-4.5251012 5.8703265 0.31036627
-4.5259862 5.8766847 0.30662906
-4.5271497 5.8827958 0.30382359
-4.5210304 5.8942642 0.30297363
-4.5164466 5.9053764 0.30341798
-4.5123549 5.9154258 0.30430764
-4.5234232 5.9203463 0.30535778
-4.5219388 5.928134 0.30842811
-4.5197372 5.9362617 0.31098378
-4.5171065 5.9449806 0.31318748
-4.5190825 5.9503942 0.31441265
-4.5175796 5.9574952 0.32480034
-4.5251889 5.9607859 0.32640913
-4.501297 5.9830394 0.33210209
-4.4956536 5.9999022 0.33290941
-4.4918437 6.0091853 0.33005214
-4.4883733 6.0185037 0.32702968
-4.4816561 6.0305791 0.32484394
-4.4732952 6.0432286 0.32674599
-4.4772115 6.0467248 0.32706994
-4.470046 6.0583854 0.32873568
-4.466948 6.0679493 0.32974476
-4.464931 6.0754585 0.32803568
-4.4735723 6.082829 0.32588023
-4.4745426 6.0885191 0.32418409
-4.4709401 6.097959 0.32150936
-4.4777713 6.0990334 0.32109705
-4.4744539 6.1098776 0.32181424
-4.4670405 6.1194706 0.32351807
-4.4667802 6.1259437 0.32359079
-4.4721889 6.1288314 0.32351357
-4.4631715 6.1420169 0.32282823
-4.4808521 6.1420169 0.32282823
-4.4720531 6.1548567 0.3218191
-4.4714251 6.1618338 0.32567373
-4.4677572 6.1711044 0.32174054
-4.4661565 6.1785922 0.32088462
-4.4708018 6.1813092 0.32146579
-4.4702244 6.1882987 0.31814307
-4.479454 6.1882987 0.31814307
-4.4812326 6.1945362 0.32287601
-4.4866123 6.2022433 0.32576865
-4.4784584 6.2079301 0.32962704
-4.4946814 6.2079301 0.32962704
-4.4884167 6.2188644 0.32513943
-4.4734297 6.2361388 0.32166749
-4.4653368 6.2488518 0.3152729
-4.4687266 6.2529631 0.31601569
-4.4625406 6.2636852 0.31824201
-4.4683757 6.272048 0.32553926
-4.4735012 6.2746177 0.32796898
-4.4698167 6.28408 0.32884458
-4.4784846 6.28408 0.32884458
-4.4742451 6.2934933 0.32670873
-4.4707146 6.302475 0.32176292
-4.4636745 6.3141389 0.31988275
-4.4697046 6.3154516 0.31967941
-4.4654899 6.3244667 0.32152727
-4.4639697 6.3315644 0.32723561
-4.4801927 6.3315644 0.32723561
-4.4731889 6.3430238 0.32788321
-4.4682574 6.3530726 0.32321653
-4.477201 6.3530726 0.32321653
-4.4653368 6.3676782 0.31968743
-4.4473591 6.3867188 0.31964552
-4.4350314 6.4012985 0.32219326
-4.4427075 6.4084134 0.31885087
-4.4418507 6.4153318 0.31750053
-4.439189 6.4237485 0.31503937
-4.4465728 6.4249277 0.31510165
-4.44485 6.4322152 0.31512824
-4.4443946 6.4388623 0.3201088
-4.4381351 6.4486704 0.32743946
-4.4358993 6.4563127 0.3260645
-4.4414253 6.4605675 0.3225992
-4.4461651 6.467063 0.31643489
-4.4538021 6.4676981 0.31630519
-4.4511099 6.4753704 0.31703505
-4.4521732 6.4803286 0.32513794
-4.4503727 6.4872713 0.33420944
-4.4580135 6.4880939 0.33535558
-4.4566965 6.494832 0.34549305
-4.4660048 6.494832 0.34549305
-4.4645085 6.5016322 0.34410077
-4.4708929 6.5037246 0.34435827
-4.4779458 6.5108323 0.34237248
-4.481647 6.5143619 0.34273055
-4.4847851 6.5178347 0.34727761
-4.4907813 6.5196486 0.35134172
-4.4867749 6.5221853 0.35541412
-4.4980488 6.5262194 0.35800087
-4.5042973 6.5277896 0.35982364
-4.5179758 6.5305748 0.36398697
-4.5227346 6.5332832 0.36446643
-4.5303183 6.53404 0.36511943
-4.5316777 6.5394182 0.36204749
-4.5334105 6.5443263 0.35852537
-4.5390754 6.5464878 0.36132622
-4.5464706 6.5476999 0.36429444
-4.5548935 6.5478568 0.37088487
-4.5667295 6.547153 0.37207687
-4.5825596 6.546895 0.37393406
-4.5900793 6.5477061 0.37503371
-4.5893712 6.5549622 0.37157312
-4.5917864 6.5595765 0.36867186
-4.6011963 6.5612702 0.36862355
-4.6019053 6.5643892 0.3687005
-4.6105537 6.5643892 0.3687005
-4.611053 6.5702128 0.37030041
-4.6110883 6.5766759 0.37249818
-4.6283078 6.5771637 0.37427104
-4.6368966 6.5771637 0.37427104
-4.6449304 6.5780978 0.37575352
-4.6476345 6.5821605 0.37659049
-4.6458139 6.5896339 0.37493768
-4.6494055 6.5934415 0.37465417
-4.6577215 6.5938387 0.37017819
-4.6691341 6.5915809 0.37291402
-4.6754341 6.5931883 0.37713596
-4.6906118 6.5953474 0.37836814
-4.6825161 6.6007829 0.38382244
-4.6933784 6.6037173 0.38877434
-4.6965199 6.6070895 0.38563758
-4.700192 6.6108384 0.38399592
-4.7149534 6.6127138 0.37979227
-4.7221026 6.6143947 0.37364972
-4.7313862 6.6146364 0.37304264
-4.7336183 6.6192923 0.37766054
-4.735775 6.6235857 0.38537264
-4.7428374 6.624495 0.38972449
-4.7550755 6.6228132 0.39085284
-4.7624507 6.6242309 0.38176122
-4.7706733 6.6247501 0.38101977
-4.781601 6.6294026 0.37559223
-4.7821112 6.6355405 0.3761802
-4.7835016 6.6405888 0.38044557
-4.791482 6.6431346 0.38435161
-4.7958479 6.6435828 0.38457188
-4.8007278 6.6467338 0.38084903
-4.8092904 6.6469932 0.3807666
-4.8122687 6.6511278 0.38052237
-4.8272796 6.6535764 0.3783378
-4.8304553 6.6576815 0.37715921
-4.8376007 6.6588178 0.3775177
-4.8415103 6.662292 0.37690049
-4.8452725 6.666388 0.37095121
-4.8499961 6.6697211 0.36437139
-4.8568907 6.6713204 0.36491194
-4.8658094 6.6708975 0.3719832
-4.8748322 6.6708975 0.3719832
-4.8841968 6.6765137 0.38053906
-4.8819985 6.6782937 0.37750208
-4.89715 6.6801391 0.37394813
-4.9032655 6.6824126 0.36462709
-4.9062338 6.6868401 0.36150816
-4.9098325 6.6902823 0.3637487
-4.9170837 6.6911259 0.37026227
-4.9254122 6.6917982 0.37903449
-4.933166 6.6926942 0.38100427
-4.9389415 6.6947999 0.38621199
-4.956985 6.6949925 0.38211244
-4.9630308 6.696979 0.37957194
-4.9667368 6.7006311 0.38110313
-4.9677505 6.706574 0.38373801
-4.9761724 6.706574 0.38373801
-4.9765425 6.7126751 0.38553119
-4.9840536 6.7134585 0.38836256
-4.9994907 6.7147307 0.38663065
-5.0065126 6.7160988 0.38762817
-5.0102253 6.7199335 0.38945255
-5.0188637 6.7199335 0.38945255
-5.021493 6.7243619 0.39016244
-5.0241923 6.728971 0.38976434
-5.0294814 6.7319527 0.38439438
-5.0389657 6.7319126 0.38446316
-5.0443063 6.7360401 0.38235262
-5.0599089 6.7360401 0.38235262
-5.0603266 6.7420192 0.38830057
-5.0671506 6.7434735 0.39197713
-5.0738635 6.7449551 0.39269015
-5.0827246 6.7450781 0.39190185
-5.093431 6.7440867 0.3858844
-5.1089187 6.7392597 0.37994498
-5.1295981 6.7347994 0.37869224
-5.1448512 6.7296319 0.37660709
-5.1589136 6.7261839 0.36953959
-5.1678181 6.7261839 0.36953959
-5.1877666 6.717329 0.37335971
-5.1995354 6.7151251 0.37544841
-5.216898 6.7092319 0.38001883
-5.2280908 6.7070942 0.37977004
-5.2485056 6.7053404 0.37881643
-5.2587585 6.7042012 0.37601593
-5.2720385 6.7006516 0.37451509
-5.2810354 6.7002001 0.37405792
-5.2897325 6.7001362 0.37144071
-5.3013802 6.697525 0.37876397
-5.3134623 6.6954517 0.38120538
-5.3273811 6.6938519 0.38271967
-5.3438892 6.6913214 0.38407028
-5.3528428 6.6913214 0.38407028
-5.3634076 6.6900067 0.37964326
-5.375205 6.6879888 0.37265307
-5.3831644 6.6891584 0.37028378
-5.3910952 6.6900091 0.37009636
-5.3991551 6.6913829 0.36821657
-5.40802 6.6913829 0.36821657
-5.4234471 6.6856804 0.37184986
-5.4448428 6.6826477 0.37699991
-5.4485326 6.6868234 0.3783561
-5.4576535 6.6868234 0.3783561
-5.4616785 6.6907678 0.37724313
-5.4710178 6.6904178 0.37167001
-5.4792457 6.6910014 0.36807266
-5.4912806 6.6911445 0.36653009
-5.498013 6.6895366 0.3668412
-5.5153942 6.6898031 0.36870936
-5.5241008 6.6897802 0.37308696
-5.5335693 6.6899319 0.37340078
-5.5429144 6.6898627 0.36493826
-5.5530214 6.6890607 0.35443804
-5.5640092 6.687192 0.35251778
-5.5728683 6.6875811 0.35035753
-5.575141 6.692791 0.35018721
-5.581058 6.6950698 0.35174316
-5.5933938 6.6989727 0.35909083
-5.6075697 6.6948471 0.36310464
-5.6184645 6.6927719 0.36689577
-5.6265001 6.6932621 0.37184146
-5.6350846 6.6962914 0.36978248
-5.6398253 6.6970029 0.36977151
-5.6476183 6.6977592 0.36974335
-5.6583099 6.6966367 0.36602649
-5.6683054 6.6954775 0.3675873
-5.675983 6.6961417 0.36986724
-5.6938167 6.6962881 0.37588191
-5.7026353 6.6956382 0.38549414
-5.7126656 6.6942868 0.39280254
-5.7251844 6.6908293 0.39757997
-5.7423043 6.6838875 0.39476538
-5.7602358 6.6766167 0.39191753
-5.7779264 6.6685901 0.39116284
-5.7941027 6.6615338 0.39629036
-5.8043528 6.6602273 0.39809927
-5.8164411 6.6575804 0.40359911
-5.840539 6.6507139 0.40816316
-5.8585491 6.6421542 0.4139474
-5.8717356 6.6383781 0.41699919
-5.8849039 6.6346393 0.4191286
-5.8943152 6.6346188 0.41869286
-5.9070249 6.6328897 0.41755196
-5.9294295 6.6270432 0.41622505
-5.9418311 6.6238747 0.41464415
-5.952219 6.6228471 0.41229427
-5.9607487 6.6224427 0.42140499
-5.969377 6.6224427 0.42140499
-5.9787002 6.6213751 0.43482104
-5.9869261 6.6218209 0.43845314
-5.996613 6.6214695 0.43763465
-6.0064039 6.6206689 0.43650112
-6.0215549 6.6154599 0.4283208
-6.0377088 6.6154599 0.4283208
-6.0457387 6.6169124 0.42222196
-6.0506229 6.6208739 0.41700467
-6.0608068 6.6196485 0.41801289
-6.0745463 6.614985 0.42398939
-6.0847039 6.6138072 0.42593122
-6.095243 6.6123285 0.42859185
-6.1061754 6.6105013 0.43332964
-6.1241221 6.6104479 0.43219563
-6.1301146 6.6126156 0.43419528
-6.1370311 6.6145959 0.43016359
-6.1436329 6.6168246 0.424804
-6.1526952 6.6168246 0.424804
-6.1575346 6.6201768 0.43005112
-6.1662083 6.6199598 0.43553939
-6.1817536 6.6194544 0.44257104
-6.1896577 6.6193419 0.44350782
-6.1993032 6.6182265 0.44702703
-6.2075539 6.6192279 0.44179142
-6.2121921 6.623919 0.43966818
-6.2200713 6.6252666 0.43481758
-6.2282567 6.6252022 0.43692017
-6.2457218 6.6255679 0.43713289
-6.2525082 6.6272779 0.44121355
-6.2603521 6.6281381 0.44235358
-6.2649055 6.631609 0.44858456
-6.2734203 6.6318874 0.45114458
-6.2820044 6.6325669 0.4505581
-6.2916198 6.6317844 0.45283028
-6.303699 6.6293859 0.4481228
-6.3144541 6.6275978 0.44109783
-6.3317075 6.6272264 0.44135407
-6.3459702 6.622067 0.44179255
-6.365438 6.6114788 0.44880286
-6.3828554 6.6028051 0.45669436
-6.3942881 6.6002064 0.45734599
-6.4144664 6.5893288 0.45649174
-6.4235678 6.5893288 0.45649174
-6.4400973 6.5822024 0.45050424
-6.4584103 6.5818791 0.44083956
-6.4677773 6.5812926 0.43745071
-6.4818759 6.5757451 0.44173032
-6.4919963 6.5748911 0.4423669
-6.5103087 6.5656028 0.44514081
-6.5248995 6.5596938 0.45149255
-6.5350938 6.5579371 0.4573057
-6.5469823 6.5582995 0.45846006
-6.5602846 6.5587463 0.45932689
-6.5606647 6.5585237 0.45707455
-6.57939 6.5577908 0.45680913
-6.5917482 6.5550394 0.44314075
-6.5999336 6.5551734 0.44393843
-6.6070776 6.5558944 0.45738921
-6.6157947 6.5555744 0.464486
-6.6256957 6.5538712 0.47571805
-6.6354966 6.5538712 0.47571805
-6.646245 6.5517263 0.47523588
-6.664804 6.5514522 0.4685823
-6.6717114 6.5536342 0.46679011
-6.6795211 6.5546522 0.4656215
-6.6870518 6.5560017 0.46607339
-6.6870518 6.5560017 0.46607339
-6.70468 6.555089 0.472819
-6.7119679 6.555943 0.48338702
-6.7216911 6.5572295 0.47710699
-6.7379808 6.5566788 0.47982916
-6.7446656 6.5581002 0.48684874
-6.7520981 6.5593896 0.49043247
-6.7579045 6.5633268 0.48407805
-6.7676678 6.5620546 0.48436221
-6.7752194 6.5630264 0.48446554
-6.7815123 6.5652289 0.48457196
-6.7871103 6.5686316 0.49162945
-6.795331 6.5690002 0.4934305
-6.8139901 6.5688281 0.49445182
-6.8227019 6.5687866 0.49859291
-6.8263512 6.5745177 0.49556661
-6.8370695 6.5756955 0.49459231
-6.8381948 6.5802641 0.48659119
-6.849987 6.5777736 0.48012912
-6.862258 6.5740209 0.47679779
-6.8726263 6.5719433 0.48105681
-6.8926282 6.5695868 0.48449412
-6.9107776 6.5598326 0.48276952
-6.9207616 6.5586939 0.48290503
-6.9325309 6.5560431 0.4811641
-6.9411588 6.5555186 0.49148315
-6.9590735 6.5459242 0.49284106
-6.9737234 6.5406246 0.47809187
-6.9842405 6.5386605 0.4759303
-6.991509 6.5396228 0.48235634
-7.0109673 6.537241 0.48593611
-7.0117188 6.5361619 0.48959705
-7.0292721 6.5338292 0.48876137
-7.0383916 6.5335641 0.48878548
-7.0535803 6.5271597 0.48582894
-7.0666356 6.523139 0.48145118
-7.0782766 6.5293036 0.48453596
-7.0861731 6.5302334 0.48545718
-7.0903654 6.5349188 0.48978624
-7.0993094 6.5349188 0.48978624
-7.1113892 6.5316162 0.48529527
-7.12184 6.5296626 0.48657832
-7.1296964 6.530035 0.49427858
-7.1393199 6.530035 0.49427858
-7.1446042 6.5327249 0.50343996
-7.1578779 6.5381856 0.50153679
-7.1667528 6.5381856 0.50153679
-7.1677685 6.5377917 0.49206775
-7.1864634 6.5367656 0.47936249
-7.1953945 6.5363736 0.47927824
-7.2033482 6.5368514 0.48127416
-7.2059102 6.5435195 0.4936198
-7.2138901 6.5438428 0.49935475
-7.2317972 6.5438428 0.49935475
-7.2439446 6.5401597 0.49584952
-7.2477942 6.5472813 0.48237213
-7.2552319 6.5485468 0.48103064
-7.2609978 6.5521822 0.47829995
-7.2716308 6.5500784 0.47665018
-7.2758865 6.5566382 0.4567284
-7.2830935 6.5597782 0.44499686
-7.295146 6.5556111 0.44544902
-7.3085952 6.5507102 0.44639298
-7.3234091 6.5542884 0.44592634
-7.3307858 6.5555797 0.44720012
-7.3332758 6.562767 0.45518485
-7.3422546 6.5628181 0.44843006
-7.3504333 6.5640545 0.44021749
-7.3566041 6.5669818 0.43263584
-7.3651552 6.5680094 0.43278062
-7.3738427 6.5680094 0.43278062
-7.3909707 6.5672092 0.45704818
-7.3951321 6.5714564 0.47003263
-7.4005513 6.5756845 0.46514428
-7.4087734 6.5771918 0.45825934
-7.4189296 6.5761561 0.45298049
-7.4308357 6.5734353 0.4442893
-7.4395595 6.5736947 0.44364193
-7.4471684 6.579339 0.44836664
-7.4531565 6.5859165 0.45155025
-7.4573112 6.5907836 0.45782325
-7.4652777 6.5918655 0.45978028
-7.4749103 6.5918455 0.4592838
-7.4838738 6.5918455 0.4592838
-7.4927983 6.5912075 0.46199563
-7.498261 6.5953102 0.45963174
-7.5042892 6.5992627 0.45645645
-7.5125532 6.5992627 0.45645645
-7.5272913 6.6022506 0.45755595
-7.5365796 6.6021199 0.4571729
-7.545218 6.6023064 0.45902711
-7.5528374 6.603332 0.46377715
-7.5600843 6.6055551 0.46348003
-7.5663381 6.6088843 0.46105579
-7.575521 6.6124587 0.4588002
-7.5803924 6.6127944 0.45712948
-7.5977654 6.6129918 0.4556182
-7.6048732 6.6151781 0.45337883
-7.6122842 6.6174307 0.4475292
-7.6207042 6.6178255 0.44540334
-7.6307073 6.6156092 0.45136294
-7.6396799 6.6155591 0.45210913
-7.647934 6.6162372 0.45683506
-7.6567535 6.6165919 0.45954686
-7.6636643 6.6192513 0.45546928
-7.6811585 6.6193099 0.45493394
-7.6925292 6.6170917 0.4498139
-7.7017479 6.6169634 0.44426021
-7.7086577 6.6186347 0.44218001
-7.7197623 6.6194453 0.44459629
-7.7231603 6.6211495 0.45386487
-7.7308278 6.6222587 0.46054575
-7.73878 6.6240673 0.45864731
-7.7472816 6.6249175 0.46329626
-7.7599039 6.6282992 0.49061614
-7.7657747 6.6317096 0.49271065
-7.7733703 6.6334796 0.48100129
-7.7812891 6.6348271 0.47157943
-7.7894182 6.6363244 0.46075124
-7.7983227 6.6363244 0.46075124
-7.8044915 6.6393638 0.46775636
-7.8130665 6.6394205 0.47341347
-7.8225899 6.6397734 0.47483122
-7.8307486 6.6405158 0.4746384
-7.8376303 6.6440339 0.46638852
-7.8540502 6.6440339 0.46638852
-7.8619318 6.6460447 0.45278275
-7.8691053 6.6480913 0.44887552
-7.8744645 6.6517768 0.44852933
-7.8830204 6.6525316 0.44864923
-7.8867931 6.6574368 0.45873436
-7.9034953 6.6585727 0.46300253
-7.9123998 6.6585727 0.46300253
-7.9151306 6.6659803 0.45517841
-7.9169292 6.6747689 0.44843802
-7.9260702 6.6747689 0.44843802
-7.9352069 6.674922 0.44164664
-7.9411755 6.6788268 0.43590379
-7.9483342 6.6827116 0.4308086
-7.9560008 6.6824856 0.43370128
-7.9659867 6.680954 0.43920699
-7.9815059 6.6810789 0.44114625
-7.9856644 6.6857996 0.44625744
-7.9916267 6.6888971 0.44564879
-7.9953756 6.6957808 0.44221637
-8.0053749 6.6941609 0.43672657
-8.0244923 6.6922593 0.43330014
-8.0349846 6.6898823 0.43217567
-8.0527811 6.6789589 0.43241197
-8.0617247 6.6789589 0.43241197
-8.0640345 6.6860013 0.44780686
-8.0663538 6.6937881 0.45470354
-8.0790901 6.6897278 0.44757292
-8.0900412 6.6893916 0.44604033
-8.0959587 6.6915493 0.43959808
-8.1025276 6.6943789 0.43993494
-8.1195784 6.694366 0.44138673
-8.1286564 6.693769 0.43817142
-8.1313028 6.7009301 0.44103712
-8.1401482 6.7009301 0.44103712
-8.1450062 6.704978 0.447846
-8.1546097 6.704978 0.447846
-8.1585579 6.7102723 0.45202011
-8.1734047 6.7142024 0.45328823
-8.177887 6.7197504 0.45050892
-8.1849594 6.7220354 0.44790649
-8.1932955 6.7222199 0.44742954
-8.2002211 6.7246866 0.44480896
-8.2068262 6.7274876 0.44996178
-8.2151928 6.728622 0.45037058
-8.2222824 6.7311025 0.44876263
-8.2306118 6.731472 0.44979188
-8.2474852 6.731472 0.44979188
-8.2510452 6.7379575 0.45056993
-8.252902 6.7467647 0.44499722
-8.2587013 6.7510128 0.4314265
-8.2691565 6.7501297 0.41284326
-8.2817726 6.7463727 0.4072924
-8.2874155 6.7498097 0.40849006
-8.2848625 6.7628384 0.42922318
-8.3034983 6.7628384 0.42922318
-8.3183947 6.7550349 0.43352497
-8.3273315 6.7561932 0.42266461
-8.3274317 6.7664108 0.42615154
-8.3352652 6.7674718 0.42580906
-8.3423109 6.7697401 0.42481926
-8.3532267 6.7669168 0.42035991
-8.3655825 6.7665253 0.41836017
-8.3663683 6.7712231 0.41981158
-8.3823137 6.7741294 0.42368385
-8.3905983 6.7747426 0.42401335
-8.3957911 6.77946 0.42426923
-8.4044199 6.77946 0.42426923
-8.4000807 6.7959037 0.42477378
-8.4084654 6.7975426 0.42170319
-8.4172649 6.7979202 0.41611362
-8.426425 6.7979202 0.41611362
-8.4348803 6.798799 0.40940234
-8.448184 6.8042269 0.41018268
-8.4519348 6.809577 0.42236859
-8.4570599 6.8142228 0.42803046
-8.4603224 6.8216033 0.42941543
-8.4555206 6.8278661 0.42443404
-8.4692001 6.8321409 0.41795692
-8.4772348 6.8328881 0.41416773
-8.4867067 6.8326573 0.4048239
-8.5015306 6.8358812 0.40295342
-8.5064516 6.8410387 0.40701482
-8.5108919 6.8465466 0.40961564
-8.5137196 6.8542624 0.40999106
-8.5161667 6.8619184 0.41282445
-8.5251541 6.8621559 0.41245964
-8.5352478 6.8618627 0.40216964
-8.5384207 6.8718228 0.37689137
-8.5390549 6.8810306 0.35955966
-8.5538607 6.8833723 0.35451964
-8.5648661 6.8804717 0.3565014
-8.5741539 6.8804717 0.3565014
-8.5843458 6.8830538 0.3527323
-8.5795002 6.8952584 0.35454753
-8.5881491 6.8951826 0.36306274
-8.5995321 6.8919368 0.36319238
-8.6075115 6.8939652 0.3541967
-8.6039438 6.9105339 0.33848742
-8.6220484 6.9105339 0.33848742
-8.6137657 6.9324698 0.32911929
-8.6074238 6.9516506 0.33264247
-8.5970993 6.9746237 0.33974802
-8.6039734 6.9773607 0.34120744
-8.5937643 7.0003028 0.34916067
-8.5875473 7.0184212 0.35255799
-8.5839729 7.034071 0.34634703
-8.5834341 7.0457349 0.34317142
-8.5809231 7.0597463 0.34478498
-8.5860891 7.0736947 0.34694269
-8.579711 7.091238 0.34705523
-8.5842514 7.0963302 0.34607685
-8.5760612 7.1178174 0.34694967
-8.5612793 7.1460376 0.34579593
-8.5481968 7.172832 0.35277772
-8.5402517 7.1924291 0.35656637
-8.5305176 7.2251415 0.36178595
-8.5346422 7.2305918 0.36220369
-8.5103388 7.2696581 0.36059648
-8.4829435 7.3120966 0.3550196
-8.4702101 7.3369255 0.34708482
-8.4546213 7.3645735 0.349388
-8.4455509 7.384902 0.35545063
-8.421648 7.4213324 0.3698228
-8.4256067 7.4303255 0.37226871
-8.3958511 7.4799666 0.37767917
-8.3747511 7.5136847 0.37202412
-8.3528566 7.5492053 0.36131853
-8.3342886 7.5797048 0.35332009
-8.3224363 7.6026058 0.3517513
-8.3000917 7.6363068 0.35349113
-8.3046827 7.6409392 0.35498473
-8.2735624 7.6836414 0.37538764
-8.2411776 7.7276478 0.38395023
-8.2354441 7.7527308 0.38250443
-8.2226667 7.7753663 0.38506824
-8.1962395 7.8136373 0.38003001
-8.2048483 7.8136373 0.38003001
-8.171998 7.857563 0.36902606
-8.1467438 7.8927236 0.36629209
-8.1272049 7.9285254 0.36962897
-8.1100445 7.953794 0.36397511
-8.1002121 7.9731059 0.36287352
-8.0819864 8.0007076 0.36038113
-8.0858564 8.005722 0.36046863
-8.0521784 8.048171 0.36427644
-8.0125599 8.0971022 0.36464098
-7.9875293 8.1309586 0.35894752
-7.9568672 8.1699276 0.3499501
-7.9515181 8.1931591 0.34679076
-7.9094229 8.2426729 0.34054649
-7.9129891 8.2478409 0.34040928
-7.8745975 8.2923136 0.35254219
-7.8459077 8.3289585 0.34467492
-7.8179436 8.3640642 0.32931158
-7.7959781 8.3956013 0.32719457
-7.7751036 8.4270096 0.33236736
-7.7394695 8.4673977 0.33991924
-7.7363567 8.4783001 0.34250897
-7.6864815 8.5319319 0.34930733
-7.6314564 8.5886822 0.3534452
-7.6035671 8.6216269 0.34619543
-7.5725656 8.65693 0.33431554
-7.5597129 8.6775618 0.32778883
-7.5055242 8.7314482 0.31873643
-7.5144777 8.7314386 0.31873643
-7.4749708 8.7807617 0.32572272
-7.4229813 8.832325 0.33222574
-7.3662329 8.8872709 0.32840365
-7.3205814 8.9326735 0.32204726
-7.3134518 8.9458799 0.32155454
-7.2559538 9.0026255 0.32339954
-7.2613416 9.0026255 0.32339954
-7.1941957 9.0634413 0.3269605
-7.1524878 9.1108685 0.32073152
-7.0878997 9.1680412 0.31748313
-7.0968142 9.1680412 0.31748313
-7.0177464 9.2352343 0.32962754
-7.0265231 9.2352343 0.32962754
-6.9675922 9.2860146 0.34397647
-6.8961644 9.3451405 0.35487434
-6.8209133 9.4064817 0.36070096
-6.7905135 9.4353247 0.35424325
-6.7876797 9.4503727 0.34767643
-6.732821 9.4959297 0.33625671
-6.6571512 9.5551615 0.34270218
-6.6006336 9.6021605 0.35548589
-6.5419831 9.64396 0.37388062
-6.5082803 9.6775198 0.38786945
-6.461689 9.7147017 0.39100313
-6.4465184 9.7305079 0.39277881
-6.3779774 9.7816792 0.38970298
-6.3225455 9.8241234 0.38087296
-6.2644267 9.8679667 0.36626193
-6.2271461 9.8969393 0.36202222
-6.1779642 9.9338903 0.36970741
-6.1704278 9.9436169 0.37293044
-6.0896177 10.003985 0.37851247
-6.0328169 10.044228 0.37409219
-5.9804354 10.080824 0.36935821
-5.9421043 10.109257 0.35621846
-5.8951755 10.142157 0.34798789
-5.8454809 10.17767 0.35153049
-5.8145347 10.197732 0.3555873
-5.741334 10.244217 0.35475299
-5.6910844 10.282349 0.34416068
-5.6476173 10.311476 0.33667904
-5.6102161 10.337347 0.33079952
-5.5409808 10.379837 0.32193747
-5.5499148 10.379837 0.32193747
-5.4585876 10.432735 0.32167152
-5.3803058 10.478008 0.33083868
-5.3289485 10.508812 0.32723585
-5.2911086 10.532414 0.32916781
-5.2170768 10.573783 0.32750356
-5.23525 10.573792 0.32750356
-5.1599851 10.615212 0.32020301
-5.0935178 10.647673 0.30635971
-5.0394359 10.68085 0.30218074
-5.0280766 10.689799 0.30414745
-4.9469686 10.735459 0.31117052
-4.9566708 10.735459 0.31117052
-4.812408 10.804613 0.31888291
-4.7640185 10.829743 0.31828547
-4.7225275 10.852198 0.30967221
-4.670599 10.878696 0.30471423
-4.6121783 10.907448 0.30473465
-4.5931783 10.919495 0.3091636
-4.501173 10.961074 0.32116318
-4.4344754 10.995725 0.31767225
-4.3781748 11.02173 0.31629843
-4.3454828 11.03833 0.31235546
-4.2820573 11.067067 0.30093658
-4.2947836 11.067087 0.30093658
-4.1964746 11.106936 0.29269996
-4.0907974 11.149362 0.30016726
-4.024457 11.176788 0.29938728
-4.0064826 11.186461 0.30258691
-3.9564326 11.210628 0.29875517
-3.9654846 11.210637 0.29875517
-3.8802204 11.244148 0.28249499
-3.7716484 11.284145 0.28188014
-3.6974638 11.311351 0.29514843
-3.6958885 11.314655 0.29668936
-3.6241128 11.340631 0.31141478
-3.5415108 11.369123 0.31792179
-3.4870059 11.391512 0.31215832
-3.4259288 11.412851 0.30801332
-3.3706887 11.429302 0.30748856
-3.3445528 11.441953 0.31095371
-3.2745237 11.464344 0.32432094
-3.2600658 11.470915 0.32792857
-3.1870623 11.493438 0.34746757
-3.1110816 11.516733 0.363289
-3.0441735 11.536438 0.36829421
-3.0400364 11.542358 0.36520684
-2.9492085 11.568251 0.36191842
-2.9582608 11.568251 0.36191842
-2.8893445 11.588068 0.35730502
-2.8065255 11.61017 0.36850917
-2.707485 11.635758 0.37421733
-2.7056656 11.638197 0.37419441
-2.6433899 11.654858 0.36631623
-2.5495169 11.678156 0.35419127
-2.4662151 11.699692 0.35960308
-2.4008219 11.714959 0.36063793
-2.3487408 11.727283 0.36976749
-2.2896683 11.741057 0.3600769
-2.2087018 11.758572 0.35355625
-2.1788411 11.766171 0.34114963
-2.0871794 11.785036 0.3250446
-2.0275552 11.797126 0.32036796
-1.984224 11.80753 0.3226974
-1.929263 11.817543 0.34205914
-1.8558214 11.830365 0.35627478
-1.8542963 11.832054 0.35813591
-1.7484802 11.849325 0.36624694
-1.6744208 11.861498 0.36081916
-1.6140862 11.871286 0.35374597
-1.5666962 11.877757 0.3495678
-1.4989045 11.889 0.36154076
-1.5120937 11.889 0.36154076
-1.4333953 11.8991 0.3856242
-1.341527 11.910649 0.39118606
-1.2879878 11.917809 0.38291854
-1.2324032 11.924561 0.38542026
-1.1718699 11.931726 0.3813484
-1.1170775 11.937647 0.38899052
-1.0813576 11.941665 0.39046702
-0.99209404 11.950076 0.3956739
-0.92541856 11.956915 0.39595079
-0.87837493 11.961189 0.39426595
-0.85566473 11.963527 0.3935273
-0.74400759 11.972028 0.38197938
-0.75294155 11.972028 0.38197938
-0.63831085 11.980094 0.36168888
-0.56610441 11.984539 0.34332412
-0.48874086 11.988653 0.33322334
-0.48663843 11.989549 0.33226499
-0.37224546 11.993933 0.33529624
-0.38063765 11.993943 0.33529624
-0.27713457 11.997077 0.33548248
-0.21116489 11.998971 0.32427394
-0.12880751 12.000698 0.30889213
-0.13766266 12.000698 0.30889213
-0.032991294 12.001863 0.29605389
0.041545685 12.001924 0.29367682
0.12767415 12.000854 0.31004587
0.18779212 11.999771 0.31775111
0.23714741 11.998695 0.32056761
0.28793293 11.997737 0.31477988
0.34746513 11.995922 0.30815649
0.36732015 11.995129 0.30617547
0.46279258 11.991414 0.31005949
0.5376516 11.987621 0.32439098
0.59779477 11.9842 0.33105686
0.61214769 11.982441 0.33557719
0.72320855 11.975465 0.34718603
0.72512633 11.97481 0.34775907
0.80228192 11.969117 0.35555345
0.88107717 11.962846 0.35933462
0.95601547 11.95652 0.35695654
0.96976238 11.954745 0.35563266
1.0810243 11.944595 0.35288456
1.0635012 11.944595 0.35288456
1.1349895 11.937053 0.3579092
1.242748 11.926106 0.36479285
1.3169135 11.916221 0.36922824
1.3387288 11.912756 0.37183636
1.4157581 11.902565 0.38059855
1.49441 11.891468 0.392712
1.5739008 11.880209 0.38971177
1.6295582 11.871708 0.38396147
1.6816703 11.862333 0.3700932
1.7423376 11.852634 0.35983935
1.7929823 11.843948 0.35604537
1.8245863 11.83779 0.35631189
1.9094144 11.822862 0.36210307
1.9598745 11.813108 0.36302468
2.0227351 11.801126 0.36005539
2.086406 11.788711 0.35304403
2.1590016 11.774328 0.34543726
2.1517737 11.772573 0.34500328
2.223165 11.757466 0.34899187
2.3053291 11.739703 0.35829979
2.3740711 11.724231 0.36342987
2.3962028 11.717796 0.36424178
2.4882212 11.696582 0.37129527
2.4878998 11.694714 0.3718605
2.5529027 11.678855 0.37127364
2.6206095 11.661797 0.3702465
2.6647792 11.647297 0.37957135
2.6722085 11.643491 0.38244477
2.7243519 11.628983 0.39201066
2.7152014 11.628983 0.39201066
2.7682521 11.614338 0.39268664
2.8317873 11.5975 0.37187827
2.8479116 11.590841 0.36593843
2.8492506 11.589542 0.3651914
2.8773088 11.578365 0.36488757
2.9084744 11.568245 0.37262917
2.93556 11.558921 0.38204828
2.9514465 11.552573 0.38477808
2.9671693 11.546193 0.38907427
2.9839685 11.539831 0.38107598
2.9981411 11.534138 0.37438482
3.0031478 11.530709 0.37053931
3.0024266 11.526375 0.36546737
3.021174 11.519279 0.35927379
3.0325754 11.513806 0.36408007
3.0339556 11.51097 0.36590275
3.0473588 11.505092 0.3677986
3.0410519 11.504532 0.36807689
3.0528965 11.497944 0.36884207
3.0622427 11.493038 0.36421201
3.0684304 11.489436 0.35613742
3.0667162 11.487718 0.3516323
3.0785775 11.482277 0.34702164
3.0721545 11.481635 0.34691393
3.0737448 11.478558 0.35623246
3.0828195 11.47298 0.37735686
3.0821781 11.47049 0.38560802
3.0631905 11.470619 0.38699076
3.0534408 11.470767 0.38021371
3.0545566 11.468525 0.36864588
3.0555816 11.466308 0.3547121
3.0598652 11.463059 0.34717527
3.0614362 11.460438 0.34514287
3.0571926 11.45801 0.34821665
3.0576985 11.456693 0.35410857
3.0411923 11.456484 0.35592473
3.0423603 11.45364 0.3615635
3.0614002 11.446789 0.34413782
3.0550802 11.446803 0.32052064
3.0353024 11.449949 0.31292352
3.0200701 11.451752 0.30417103
3.0118356 11.451752 0.30417103
3.048964 11.439175 0.31965888
3.0465286 11.437465 0.32631299
3.0252407 11.438564 0.31960174
3.0142555 11.439095 0.31801561
3.0082014 11.43839 0.31387055
3.0134108 11.434704 0.31318519
3.0130107 11.432237 0.31867549
3.0025368 11.431828 0.32063138
3.0076542 11.429088 0.32380384
3.0007713 11.42877 0.31781426
2.9963443 11.42782 0.30804074
2.9850707 11.426605 0.29560435
2.9802806 11.425602 0.29350293
2.9718328 11.425221 0.30258378
2.97089 11.422723 0.31428277
2.9737184 11.419238 0.32848862
2.9662986 11.418889 0.32963225
2.9579098 11.418822 0.32737902
2.9467552 11.419728 0.31317934
2.9510362 11.416429 0.30200478
2.9553893 11.413279 0.29082775
2.9392984 11.412979 0.29030594
2.9360366 11.413554 0.30053735
2.9195971 11.41331 0.3030991
2.9226966 11.410092 0.3124589
2.9276066 11.406606 0.31091535
2.9222503 11.405696 0.30365059
2.9171231 11.405034 0.2934956
2.9089632 11.402881 0.28577128
2.8996747 11.402881 0.28577128
2.9129305 11.397117 0.29290983
2.9113784 11.395423 0.29235697
2.8806078 11.401201 0.28929469
2.868711 11.401804 0.29082781
2.8791296 11.396266 0.30810478
2.86992 11.396266 0.30810478
2.8826008 11.390176 0.31545404
2.8790855 11.389304 0.31484407
2.8635063 11.389399 0.30562142
2.8550451 11.389399 0.30562142
2.8557591 11.387364 0.2932848
2.8545034 11.385126 0.30096421
2.857317 11.381704 0.3220658
2.8563385 11.37933 0.33608988
2.852643 11.377822 0.34249139
2.8356752 11.377612 0.34421512
2.8286633 11.377461 0.33068511
2.8188882 11.377677 0.32869464
2.8155456 11.376218 0.33015019
2.8207245 11.372648 0.33202624
2.8172994 11.371227 0.33564338
2.8057456 11.371664 0.3381249
2.7878492 11.373718 0.34060529
2.7791123 11.373718 0.34060529
2.7756259 11.370627 0.33542129
2.7817826 11.367102 0.3314428
2.7766414 11.366393 0.32967764
2.7704871 11.365836 0.32800263
2.773787 11.363072 0.31781781
2.7649615 11.363072 0.31781781
2.7635686 11.361477 0.3114613
2.7593503 11.360112 0.31912386
2.7522619 11.357447 0.32086301
2.7475846 11.356189 0.32045686
2.7371109 11.356495 0.31880382
2.7254624 11.357099 0.31908882
2.7252951 11.355279 0.31451589
2.7334034 11.351905 0.29793772
2.7314451 11.350515 0.29455113
2.7224088 11.349179 0.29241243
2.7190647 11.348097 0.2978918
2.7152882 11.346921 0.30153432
2.7079079 11.34647 0.30603379
2.6989961 11.346139 0.31440401
2.6978185 11.344094 0.32138872
2.6926944 11.343037 0.32402629
2.6883869 11.341797 0.32846281
2.6747296 11.341039 0.32142517
2.6694472 11.340071 0.31989121
2.6612647 11.339992 0.31625795
2.6543725 11.339352 0.31909335
2.6529679 11.337381 0.32675099
2.651103 11.335577 0.33311191
2.6428447 11.33528 0.34196344
2.6340191 11.335079 0.34073293
2.6203411 11.334649 0.33827576
2.6115746 11.334649 0.33827576
2.6120172 11.332813 0.33113569
2.617919 11.329539 0.32657424
2.6197217 11.32684 0.3329123
2.6124837 11.326368 0.33535874
2.6037533 11.326159 0.34045586
2.5959682 11.325565 0.3479448
2.5877912 11.325486 0.34863263
2.5692041 11.325126 0.3591629
2.5782294 11.322832 0.36672497
2.5707614 11.320848 0.35891306
2.5721858 11.318888 0.35002002
2.5688243 11.317768 0.34716639
2.5688059 11.315949 0.34090284
2.5569663 11.315949 0.34090284
2.5595963 11.313979 0.34911799
2.5618997 11.311047 0.36205053
2.550559 11.30957 0.36670524
2.5444162 11.308775 0.37156877
2.5347502 11.308837 0.3699072
2.5320983 11.307642 0.36341679
2.5233316 11.307642 0.36341679
2.5311296 11.304128 0.35853961
2.5243306 11.303385 0.3665843
2.5164006 11.302748 0.37000668
2.511533 11.301221 0.37494102
2.4965007 11.301001 0.37562099
2.5012298 11.297558 0.38797706
2.4927785 11.297558 0.38797706
2.5064244 11.294648 0.38478425
2.4958432 11.29359 0.37496582
2.4955721 11.292028 0.36701053
2.4945242 11.290722 0.35800013
2.4897301 11.289828 0.35857669
2.4818172 11.287283 0.3675116
2.4728439 11.287283 0.3675116
2.4712572 11.285298 0.37869492
2.4654312 11.284773 0.37592191
2.4533772 11.28543 0.37501386
2.443537 11.28543 0.37501386
2.4558756 11.281027 0.36953244
2.4477592 11.281027 0.36953244
2.4558461 11.277735 0.36120901
2.4415376 11.277417 0.3545619
2.4350352 11.276876 0.3557989
2.4483433 11.27388 0.35939577
2.4364755 11.27287 0.35805002
2.4373446 11.270635 0.36281359
2.435107 11.269251 0.362937
2.4293699 11.268552 0.36288428
2.4222059 11.26816 0.36217591
2.4241071 11.26446 0.34531754
2.4255314 11.26254 0.33639055
2.4166257 11.262525 0.33626401
2.4025204 11.263288 0.34530544
2.4034626 11.260784 0.35560775
2.3968914 11.260228 0.35671192
2.3966627 11.25824 0.36015305
2.3946109 11.257047 0.35303771
2.3884661 11.256974 0.33722645
2.3808701 11.256927 0.33168676
2.3750927 11.255327 0.31734022
2.3677149 11.255327 0.31734022
2.3678443 11.253027 0.32772467
2.372335 11.249949 0.33452284
2.3678672 11.249101 0.33764127
2.3564801 11.247811 0.33244994
2.3487353 11.247657 0.32987145
2.3442345 11.247169 0.31509966
2.3358891 11.24706 0.3152537
2.3379831 11.24469 0.31572539
2.3440316 11.241486 0.32166481
2.3447082 11.239576 0.32168889
2.3384008 11.239033 0.32186693
2.3329899 11.238371 0.32417443
2.3154864 11.238371 0.32417443
2.3272548 11.235524 0.33827987
2.3275855 11.231635 0.35086396
2.3247614 11.230412 0.34993762
2.3243175 11.228635 0.35118029
2.3198705 11.227785 0.34654871
2.3144505 11.227201 0.34200034
2.3057129 11.227178 0.3428314
2.2868338 11.226439 0.3712787
2.2767587 11.225823 0.39685422
2.2668686 11.225463 0.41324559
2.2561283 11.225895 0.41018257
2.2435026 11.226559 0.40995696
2.2346754 11.227036 0.39308703
2.227026 11.226844 0.39142191
2.2374563 11.223433 0.37738299
2.2389915 11.221482 0.37674031
2.2267017 11.22035 0.37910435
2.2229724 11.219378 0.37946764
2.2201889 11.21817 0.3801491
2.2174308 11.216908 0.38174018
2.2088811 11.216908 0.38174018
2.2148163 11.213839 0.38530728
2.2136619 11.212266 0.38522604
2.2104332 11.211097 0.38248846
2.203655 11.210646 0.37581035
2.1864743 11.211327 0.35770643
2.1772251 11.211327 0.35770643
2.1649361 11.212381 0.34609604
2.1767511 11.208284 0.35224819
2.1777854 11.205777 0.37164751
2.1721599 11.204925 0.3782973
2.164927 11.204064 0.37869349
2.1694484 11.202465 0.37206343
2.1553957 11.202017 0.36788693
2.1593459 11.200137 0.34948111
2.1551251 11.199445 0.34227544
2.1492703 11.198543 0.35147703
2.1465514 11.196792 0.36955315
2.1416519 11.195292 0.3900125
2.1243925 11.196137 0.40911567
2.1155572 11.196137 0.40911567
2.0842223 11.200042 0.41581205
2.0915313 11.195413 0.41054711
2.1073554 11.190956 0.40336993
2.1066196 11.18989 0.39273921
2.0952706 11.190293 0.39437693
2.0899823 11.189481 0.39997575
2.0792098 11.189175 0.40215871
2.0923584 11.185565 0.41029465
2.0956955 11.183359 0.40877777
2.0868518 11.181839 0.4028565
2.092093 11.18004 0.38141441
2.0869279 11.179737 0.37256366
2.0765097 11.181088 0.3393161
2.0669849 11.181088 0.3393161
2.0693538 11.179602 0.31995136
2.0725417 11.176911 0.33462319
2.0645106 11.176145 0.35246766
2.0593152 11.175171 0.36135095
2.0509195 11.173596 0.36098108
2.0546575 11.17167 0.34987417
2.0467412 11.171561 0.34755018
2.0516801 11.171238 0.3282755
2.0441034 11.169676 0.32354042
2.0457225 11.167459 0.33514214
2.0357096 11.167573 0.33813629
2.0259955 11.167432 0.34219766
2.0204892 11.16653 0.34981874
2.0129657 11.166018 0.35636315
2.0000944 11.164755 0.3690668
2.0039535 11.162246 0.37867433
2.0030658 11.160718 0.3816759
1.9953966 11.160295 0.38405475
1.9893575 11.159627 0.3875165
1.9905813 11.157907 0.38602144
1.989656 11.156565 0.38533583
1.9837964 11.156176 0.38325137
1.974486 11.155926 0.3928698
1.9601372 11.154963 0.40568465
1.9605323 11.153106 0.41264698
1.964588 11.150773 0.41582254
1.9571398 11.150538 0.41549513
1.9512432 11.150438 0.40528473
1.9522725 11.149036 0.39353544
1.9512421 11.147777 0.38272882
1.9476069 11.147279 0.37732339
1.9308692 11.147115 0.37567034
1.9216299 11.147115 0.37567034
1.9165704 11.146372 0.38227153
1.9324666 11.141849 0.39015898
1.9528656 11.136522 0.3968986
1.9561417 11.134377 0.39865941
1.9808625 11.1285 0.39490396
1.9762014 11.127843 0.39356324
2.0008652 11.120646 0.38350242
2.0426841 11.111427 0.38195819
2.0726178 11.103852 0.39467862
2.0797961 11.100616 0.39937946
2.1220233 11.089725 0.42644751
2.1189783 11.088681 0.42870635
2.1586385 11.078996 0.43818912
2.210211 11.067557 0.4254128
2.261472 11.055894 0.41187942
2.252378 11.054183 0.40926149
2.3085415 11.040817 0.40721631
2.3523116 11.029094 0.420302
2.3970366 11.016882 0.43726322
2.4433212 11.004556 0.44324985
2.4895761 10.992533 0.43763974
2.5315802 10.980629 0.42732614
2.5678937 10.971202 0.41703194
2.5934112 10.96348 0.40934983
2.6450241 10.946943 0.40687045
2.6967421 10.932272 0.4039585
2.7525375 10.916086 0.40722582
2.7926452 10.903539 0.40981776
2.8434186 10.888034 0.4144319
2.8341005 10.888034 0.4144319
2.8881476 10.871594 0.40787569
2.9640002 10.849188 0.4031907
3.0136566 10.830724 0.40220901
3.0299971 10.823834 0.40024361
3.0927353 10.803612 0.40130419
3.0829542 10.803602 0.40130419
3.1559496 10.78235 0.40543801
3.2155468 10.759627 0.413737
3.295634 10.732554 0.41930935
3.2946596 10.73007 0.41917416
3.3633952 10.705688 0.42421374
3.4110277 10.685151 0.42163074
3.5015321 10.653265 0.41288394
3.557229 10.631658 0.4077054
3.6164336 10.608629 0.40945151
3.6578722 10.591105 0.41390529
3.7024059 10.572438 0.41967833
3.7171752 10.563672 0.42151573
3.7957411 10.532676 0.42525598
3.8785484 10.49903 0.4220897
3.926955 10.474786 0.4151589
3.967885 10.456053 0.41208589
4.0032935 10.442465 0.41415784
4.0690794 10.41055 0.4139359
4.0595541 10.41055 0.4139359
4.1436143 10.374067 0.41222867
4.2123151 10.342177 0.41587269
4.2522421 10.322303 0.42251053
4.2826309 10.303069 0.41762635
4.3310161 10.279355 0.41617966
4.3861747 10.25229 0.41341722
4.4047365 10.240555 0.41540912
4.46245 10.21136 0.42468098
4.5260515 10.178903 0.43997145
4.5764322 10.152062 0.44555068
4.6274862 10.124238 0.45111597
4.6725149 10.09934 0.4541631
4.7182617 10.073671 0.45751324
4.7161107 10.066551 0.45685434
4.78477 10.030793 0.43716651
4.8741317 9.9836378 0.4273167
4.939784 9.9468374 0.42912957
4.9571581 9.9334316 0.43380925
5.0454683 9.8827028 0.46271914
5.0368104 9.8827028 0.46271914
5.0919037 9.8449383 0.46206629
5.1469126 9.8123713 0.44412842
5.2227931 9.7683401 0.42218629
5.2140465 9.7683401 0.42218629
5.3331547 9.6992826 0.41541162
5.3753214 9.6702862 0.42526215
5.429162 9.6351852 0.42976022
5.4626489 9.6114244 0.42604828
5.4995656 9.5837479 0.42128983
5.5249667 9.561491 0.41948655
5.5831866 9.5226841 0.41681069
5.5907226 9.5127602 0.41703957
5.6682987 9.460516 0.43833351
5.7221031 9.4220924 0.45284215
5.7708859 9.3870993 0.45195913
5.7685871 9.3834982 0.45040065
5.8367085 9.3361368 0.44245073
5.8269472 9.3361273 0.44245073
5.8955574 9.2822828 0.43609008
5.9668736 9.2310457 0.43821794
6.0313468 9.1825256 0.45095339
6.0300927 9.1768427 0.45059466
6.0908785 9.1307917 0.45144451
6.1681552 9.073 0.44532406
6.2198315 9.0297127 0.43507457
6.2687263 8.9889841 0.41737816
6.3167725 8.949131 0.40842238
6.3493838 8.9195318 0.41529137
6.3869171 8.886241 0.42184526
6.426702 8.8515034 0.41540036
6.4508028 8.8269348 0.42028585
6.4898205 8.7918358 0.42194945
6.5131106 8.7615776 0.42372549
6.5391927 8.7356157 0.427347
6.5670505 8.708127 0.42624378
6.5987692 8.677084 0.42552549
6.6247449 8.6511478 0.4161911
6.6387095 8.633482 0.41511041
6.6590018 8.611104 0.41369766
6.6695566 8.5933638 0.41501924
6.6892419 8.5738354 0.42149711
6.6870494 8.561533 0.4240942
6.7120304 8.5348043 0.43474066
6.703402 8.5348043 0.43474066
6.7141347 8.5191917 0.43160003
6.7325749 8.4980965 0.42990863
6.7519603 8.4762897 0.42330065
6.7433515 8.4762897 0.42330065
6.7621417 8.4545403 0.42459115
6.7586489 8.4429064 0.42625389
6.7712827 8.4250965 0.4359979
6.772985 8.4164553 0.4380874
6.7783661 8.4052572 0.4389663
6.7812161 8.3961096 0.43315995
6.7917109 8.3806381 0.42559123
6.7831321 8.3779182 0.42246941
6.7933483 8.3647575 0.42060083
6.7996769 8.3538218 0.41529509
6.7912683 8.3466797 0.41478014
6.7839708 8.3447609 0.41807082
6.7850056 8.3366404 0.42661613
6.7762294 8.3366404 0.42661613
6.7841506 8.3228645 0.4278906
6.7900209 8.3107519 0.43330336
6.7952776 8.2989855 0.42816114
6.7916751 8.2942133 0.4264161
6.7853518 8.29216 0.42794588
6.7718787 8.2890997 0.42328516
6.7736073 8.2805061 0.42050359
6.7733979 8.2726221 0.41828388
6.7847676 8.2627926 0.42817765
6.7759552 8.255105 0.43400872
6.799109 8.2294312 0.43955803
6.7900667 8.2294312 0.43955803
6.8184514 8.1991072 0.43173593
6.8367653 8.1768723 0.41951928
6.8426819 8.1568336 0.41172504
6.8444085 8.1478167 0.41071752
6.8670273 8.1215219 0.40910619
6.8573842 8.1215219 0.40910619
6.8887062 8.0870895 0.42189488
6.9153886 8.056407 0.42660126
6.9324026 8.0339422 0.42921251
6.9237547 8.0339422 0.42921251
6.940052 8.0128174 0.41767383
6.957077 7.9901218 0.4118444
6.9622288 7.9710202 0.4132373
6.9702277 7.9568744 0.41517252
6.9847331 7.9364867 0.41204879
7.0048199 7.9111304 0.41115749
7.0208297 7.8892097 0.41254029
7.0280933 7.8751774 0.41087458
7.0364809 7.8521113 0.4089109
7.0500698 7.831985 0.4098998
7.0682812 7.8074412 0.41058794
7.0782876 7.7901144 0.40699092
7.0937929 7.7680783 0.39979884
7.0997949 7.7543535 0.39742914
7.1218724 7.7262321 0.39428318
7.1379194 7.7033038 0.39270213
7.1543555 7.6792326 0.39239889
7.1600614 7.6640754 0.39549777
7.1827087 7.628624 0.39431483
7.1793904 7.6233072 0.3942152
7.2209125 7.5755882 0.38934106
7.2457838 7.5431504 0.38856429
7.2699127 7.511538 0.382819
7.2690225 7.5039763 0.38257384
7.2996554 7.463789 0.38902569
7.3241277 7.4324436 0.3891587
7.3342142 7.4052539 0.38758755
7.3606315 7.3707628 0.38157877
7.3827004 7.339726 0.37917188
7.4010158 7.3119321 0.38294229
7.4149046 7.2883492 0.38023835
7.4140644 7.2798691 0.38189062
7.4382286 7.2451019 0.38662651
7.4479675 7.2219996 0.39552966
7.4649391 7.1902051 0.40056118
7.4872942 7.1586752 0.39723778
7.5124087 7.1227193 0.391435
7.5156822 7.1103573 0.38916272
7.5376654 7.0780683 0.38546714
7.5697994 7.0339575 0.38898495
7.5870934 7.0048757 0.38565496
7.5995579 6.9819131 0.38562825
7.6054492 6.9661603 0.37991741
7.6100717 6.9431362 0.37192342
7.6133246 6.9300766 0.37266812
7.6328597 6.8981409 0.37151262
7.6635633 6.8540335 0.38151067
7.6911511 6.8133764 0.38861048
7.7187543 6.7821178 0.38811338
7.7215118 6.7596669 0.38086888
7.7393293 6.7289534 0.37948495
7.7484269 6.708384 0.37771952
7.7742124 6.6574602 0.37892887
7.7890024 6.6288419 0.39170069
7.8012023 6.6034312 0.40824184
7.8226705 6.5670862 0.41583312
7.8498363 6.5238523 0.41516578
7.8456864 6.5181203 0.41388395
7.8693142 6.4792676 0.40222058
7.8968825 6.4333653 0.40054408
7.9268064 6.3853817 0.40336451
7.9507179 6.3438525 0.40655813
7.9614792 6.3078251 0.40903014
7.9870238 6.2754092 0.40963909
7.9835138 6.2676125 0.40875465
8.0005159 6.2264705 0.40215823
8.0345716 6.171453 0.39253739
8.0599413 6.1260133 0.3889581
8.0571966 6.118072 0.39066505
8.0803738 6.0635099 0.40009871
8.0712328 6.0635099 0.40009871
8.1006804 6.0121102 0.39970502
8.1341372 5.9548874 0.39609718
8.1602573 5.9070845 0.39750904
8.1513233 5.9070845 0.39750904
8.1805716 5.8539219 0.39557332
8.2049789 5.8063645 0.40560499
8.1948919 5.8063645 0.40560499
8.223237 5.7420774 0.41713619
8.2680464 5.6772275 0.41903403
8.2820177 5.6322689 0.41957289
8.2765102 5.6261744 0.41996917
8.3083801 5.5655293 0.42122567
8.2992592 5.5655293 0.42122567
8.3399916 5.4910154 0.41598168
8.371664 5.4296947 0.41455564
8.3951445 5.3791828 0.41571179
8.4004803 5.3419495 0.41569713
8.4030638 5.3243051 0.41674328
8.4352493 5.2599106 0.41352805
8.4264927 5.2599106 0.41352805
8.4575434 5.1963148 0.40380278
8.4815636 5.1422524 0.40050045
8.4981613 5.1007881 0.39980683
8.5138044 5.0599489 0.39844382
8.5099955 5.0372038 0.39711908
8.5326509 4.9828668 0.39670706
8.5281773 4.9760389 0.39713576
8.550703 4.9224081 0.40306687
8.5690413 4.8749599 0.40523675
8.5858679 4.8282566 0.40876842
8.5771217 4.8282566 0.40876842
8.6003294 4.7701278 0.41292351
8.5911884 4.7701278 0.41292351
8.6288996 4.6684928 0.41435197
8.6388435 4.6321201 0.41343078
8.6535273 4.5879822 0.41807732
8.6627321 4.5534482 0.42340079
8.6741161 4.5157619 0.42473948
8.6702299 4.5067186 0.42463046
8.6815481 4.4669065 0.4256855
8.6906033 4.4259639 0.42807841
8.6925745 4.3969841 0.42993236
8.6877728 4.3893652 0.42967433
8.6977196 4.3518653 0.42813185
8.689003 4.3518653 0.42813185
8.6996632 4.3126903 0.43358332
