# .PCD v0.7 - Point Cloud Data file format
VERSION 0.7
FIELDS x y z
SIZE 4 4 4
TYPE F F F
COUNT 1 1 1
WIDTH 1540
HEIGHT 1
VIEWPOINT 0 0 0 1 0 0 0
POINTS 1540
DATA ascii
0.5300827 11.714858 0.43804145
0.60086316 11.708003 0.44803402
0.60086316 11.708003 0.44803402
0.69097739 11.698352 0.46065611
0.71726608 11.695559 0.46355808
0.80025935 11.687634 0.45740026
0.89034897 11.677835 0.42805693
0.96555275 11.670111 0.41509745
0.96555275 11.670111 0.41509745
1.0395329 11.660493 0.41443467
1.0560275 11.658167 0.41538346
1.1261672 11.647697 0.42104012
1.2094774 11.635587 0.41900855
1.3019339 11.622765 0.40937635
1.3019339 11.622765 0.40937635
1.3802747 11.610203 0.4028759
1.394194 11.607638 0.40397757
1.4749146 11.592478 0.41267818
1.5575008 11.576495 0.41979539
1.638854 11.560595 0.42234311
1.638854 11.560595 0.42234311
1.7028952 11.546876 0.4275285
1.7283789 11.541286 0.42647961
1.7916603 11.527281 0.42586613
1.8562334 11.510007 0.43490264
1.9058216 11.49655 0.44769824
1.9058216 11.49655 0.44769824
1.9577571 11.48319 0.44851306
1.9672743 11.480913 0.4464013
2.0029972 11.472432 0.43169838
2.0350752 11.461997 0.41918901
2.0672188 11.452576 0.41713658
2.0672188 11.452576 0.41713658
2.0968392 11.442324 0.42556089
2.1000507 11.441116 0.42678037
2.1294634 11.430661 0.43604574
2.1504474 11.422577 0.43557969
2.1681876 11.416834 0.42419031
2.1681876 11.416834 0.42419031
2.1827512 11.41116 0.41556233
2.1837378 11.410362 0.41420928
2.1916239 11.405985 0.40807834
2.2145932 11.397749 0.40863869
2.2248654 11.391917 0.41067567
2.2248654 11.391917 0.41067567
2.2318354 11.386626 0.41305098
2.2336204 11.385396 0.41417783
2.2401831 11.381421 0.40828711
2.247448 11.375793 0.39981216
2.2520339 11.372346 0.38793144
2.2520339 11.372346 0.38793144
2.2562454 11.368569 0.3858344
2.2541192 11.366529 0.39130643
2.2559731 11.360583 0.41108766
2.2552059 11.357309 0.42078346
2.2395487 11.357235 0.42425451
2.2395487 11.357235 0.42425451
2.2367537 11.355802 0.40708998
2.2335055 11.35551 0.40035018
2.2347109 11.353061 0.38867521
2.2370324 11.347444 0.37945452
2.2358062 11.343719 0.3829456
2.2358062 11.343719 0.3829456
2.2273109 11.341672 0.38959652
2.2239022 11.340491 0.39373657
2.2350709 11.33482 0.38273126
2.2378442 11.331477 0.36155853
2.2042348 11.336757 0.34438664
2.2042348 11.336757 0.34438664
2.21035 11.330819 0.3454932
2.2176669 11.328002 0.34883997
2.2314351 11.320111 0.36079332
2.2132759 11.319621 0.36195254
2.2014854 11.322134 0.3574532
2.2014854 11.322134 0.3574532
2.1995149 11.318903 0.35451874
2.201061 11.316841 0.35420683
2.1978438 11.312687 0.3629472
2.1949248 11.31071 0.36855417
2.1866744 11.309677 0.35429275
2.1866744 11.309677 0.35429275
2.1818945 11.308617 0.34324682
2.1780875 11.308372 0.33538297
2.1675482 11.306233 0.34302285
2.1634202 11.303156 0.36138719
2.1643708 11.297616 0.3790563
2.1643708 11.297616 0.3790563
2.1510277 11.297191 0.37747481
2.1447706 11.297581 0.37481189
2.1370564 11.297261 0.35672423
2.1465235 11.291416 0.33898753
2.1331875 11.290709 0.34024221
2.1331875 11.290709 0.34024221
2.1202023 11.288237 0.3526746
2.1205611 11.286609 0.35652855
2.1227167 11.282848 0.35940218
2.1185102 11.283282 0.35095158
2.1121056 11.282624 0.33535138
2.1121056 11.282624 0.33535138
2.1074324 11.279765 0.33403307
2.1084545 11.278621 0.33595401
2.1150537 11.274137 0.33121598
2.0773137 11.278884 0.33017758
2.062887 11.276685 0.34126043
2.062887 11.276685 0.34126043
2.0785933 11.268439 0.35515171
2.0796947 11.267231 0.35486796
2.0713239 11.264778 0.35652167
2.059618 11.266027 0.341809
2.0553133 11.264459 0.32704547
2.0553133 11.264459 0.32704547
2.0488288 11.261415 0.33141899
2.047965 11.25945 0.33851689
2.0445364 11.253773 0.35877606
2.0374258 11.253129 0.37301326
2.0242865 11.252543 0.36826682
2.0242865 11.252543 0.36826682
2.0080688 11.252675 0.35690707
2.0062704 11.252143 0.35681424
2.0044084 11.248836 0.35819927
2.0049319 11.24663 0.35928574
1.9834298 11.246871 0.36346596
1.9834298 11.246871 0.36346596
1.9691133 11.245487 0.36333269
1.9701504 11.243793 0.36041543
1.9709103 11.240579 0.3583661
1.9631743 11.238513 0.35504699
1.9582784 11.235519 0.35014048
1.9582784 11.235519 0.35014048
1.9544619 11.233479 0.33988029
1.9510262 11.232862 0.3387858
1.9412243 11.230276 0.34367451
1.9380143 11.230008 0.34822923
1.9319731 11.227654 0.34915376
1.9149295 11.22732 0.34854674
1.9149295 11.22732 0.34854674
1.9097065 11.225805 0.34244546
1.9098874 11.225177 0.34057644
1.9144274 11.222225 0.32438368
1.9103687 11.220171 0.31960553
1.9023887 11.217635 0.3256014
1.9023887 11.217635 0.3256014
1.8941649 11.214787 0.33257902
1.8852866 11.21382 0.33655918
1.8783429 11.211242 0.34467345
1.87093 11.210884 0.34884551
1.8635371 11.208662 0.35283411
1.8552964 11.207159 0.34483686
1.8552964 11.207159 0.34483686
1.8452713 11.205759 0.33956033
1.8413048 11.205258 0.33924589
1.8363668 11.20612 0.34781301
1.8314352 11.202765 0.3548519
1.8198019 11.200332 0.36638245
1.8078141 11.199464 0.36435202
1.8078141 11.199464 0.36435202
1.8015732 11.199825 0.35172498
1.8003763 11.199162 0.35042569
1.8003354 11.196805 0.34660935
1.7990509 11.193606 0.34929463
1.7876643 11.191984 0.35234734
1.7715092 11.190289 0.36654294
1.7715092 11.190289 0.36654294
1.7651316 11.190341 0.3794798
1.7620813 11.190084 0.38140112
1.7532711 11.188505 0.38473159
1.7506835 11.186892 0.37926325
1.7501694 11.185564 0.36916336
1.749958 11.182847 0.3603707
1.749958 11.182847 0.3603707
1.743138 11.18011 0.36621964
1.743138 11.18011 0.36621964
1.7398113 11.177356 0.37396151
1.7326159 11.174889 0.38261598
1.7257099 11.174586 0.3886641
1.7147366 11.174767 0.3784577
1.7147366 11.174767 0.3784577
1.7136548 11.171929 0.38063762
1.7134855 11.171119 0.37373802
1.7039658 11.169544 0.37975383
1.693063 11.167326 0.38976899
1.6861923 11.164882 0.39650673
1.6837872 11.161351 0.40595391
1.6837872 11.161351 0.40595391
1.6828554 11.15856 0.40707654
1.6822073 11.158166 0.40552974
1.6757314 11.157226 0.400471
1.6718313 11.155776 0.38672692
1.6685311 11.154855 0.37482747
1.6647551 11.152198 0.37832284
1.6641995 11.151936 0.37926522
1.6599113 11.149157 0.38757527
1.6562608 11.148285 0.39299712
1.6470212 11.148434 0.40043753
1.6290028 11.148043 0.40136427
1.6295999 11.145623 0.39647281
1.6295999 11.145623 0.39647281
1.636477 11.142566 0.38589883
1.6357535 11.14187 0.38492081
1.6298567 11.139501 0.37978581
1.6187614 11.137988 0.38099119
1.6212126 11.134357 0.38319153
1.6206996 11.131087 0.3874425
1.6206996 11.131087 0.3874425
1.6128588 11.127892 0.3927727
1.611066 11.127557 0.39335194
1.6038477 11.126195 0.39036548
1.6081631 11.12333 0.37508309
1.6034856 11.121806 0.36559391
1.5833321 11.121027 0.37475318
1.5833321 11.121027 0.37475318
1.5840908 11.117462 0.37954116
1.5833353 11.116515 0.38222536
1.5797222 11.113491 0.38584107
1.5723289 11.11221 0.38027546
1.5626035 11.11266 0.36415979
1.5546741 11.111174 0.34813598
1.5546741 11.111174 0.34813598
1.5519012 11.108479 0.34506306
1.549626 11.107394 0.35028318
1.548198 11.103392 0.35722947
1.5378562 11.10105 0.36501786
1.5383756 11.103647 0.35453752
1.5278203 11.103799 0.33836007
1.5278203 11.103799 0.33836007
1.5198878 11.101919 0.33435273
1.5191844 11.101337 0.33380502
1.5191287 11.097878 0.34195396
1.5220327 11.09738 0.3477461
1.5117493 11.095499 0.34950194
1.5117493 11.095499 0.34950194
1.5058609 11.093141 0.35570481
1.5048478 11.091851 0.36145779
1.5059942 11.087798 0.36875293
1.4996693 11.085164 0.37455508
1.5012619 11.084094 0.37206724
1.4941268 11.08307 0.36449757
1.4941268 11.08307 0.36449757
1.4811867 11.082097 0.36576596
1.4764084 11.081371 0.37172124
1.4568402 11.077961 0.40679824
1.4460728 11.075818 0.42574519
1.4298638 11.074295 0.43115351
1.4111714 11.074493 0.42793646
1.4111714 11.074493 0.42793646
1.4046847 11.074235 0.41002503
1.4072279 11.073245 0.4052645
1.4093765 11.068689 0.39885059
1.4034077 11.066437 0.39662582
1.3961419 11.064368 0.39731669
1.3918189 11.061854 0.40089941
1.3918189 11.061854 0.40089941
1.3881023 11.061524 0.40088129
1.3877772 11.060893 0.4009448
1.3818785 11.058436 0.40557992
1.3762242 11.056153 0.40038437
1.3684779 11.056046 0.37482113
1.3684779 11.056046 0.37482113
1.3443854 11.057451 0.36707041
1.3439975 11.057555 0.36549848
1.3468403 11.053685 0.37083
1.3481282 11.048903 0.38967445
1.3393012 11.045859 0.39740059
1.3329338 11.043975 0.3929483
1.3329338 11.043975 0.3929483
1.334659 11.045644 0.37875414
1.3341768 11.045394 0.37109753
1.327552 11.044178 0.35962585
1.3166627 11.041725 0.36650845
1.3107045 11.037348 0.38548657
1.3049152 11.039389 0.41539729
1.3049152 11.039389 0.41539729
1.2712452 11.038471 0.43429434
1.2593846 11.03883 0.4346903
1.2516236 11.036783 0.43749928
1.274537 11.031977 0.4234027
1.2790498 11.029883 0.40571228
1.2633852 11.028553 0.40581423
1.2633852 11.028553 0.40581423
1.260519 11.024349 0.41779181
1.2618858 11.022888 0.41770795
1.2648739 11.020083 0.42356065
1.2608703 11.016825 0.41590559
1.2658488 11.019798 0.391698
1.2561543 11.021233 0.35895604
1.2561543 11.021233 0.35895604
1.2422475 11.021584 0.33902007
1.2425952 11.021174 0.33314812
1.2452644 11.016924 0.33760691
1.2329921 11.016932 0.36148405
1.2261766 11.01355 0.37489629
1.227379 11.010638 0.36910328
1.227379 11.010638 0.36910328
1.2229997 11.010321 0.34954709
1.2199289 11.01028 0.34317306
1.2146466 11.010124 0.33812335
1.2149535 11.006831 0.33914033
1.2026702 11.00462 0.34792885
1.1909952 11.002136 0.35487002
1.1909952 11.002136 0.35487002
1.1801109 11.004321 0.37109989
1.1776572 11.0039 0.3728053
1.1701784 11.000581 0.38651302
1.1716489 10.997307 0.38936254
1.1621506 10.995176 0.39379513
1.1552801 10.992931 0.39721918
1.1552801 10.992931 0.39721918
1.1582202 10.993312 0.39324185
1.1572675 10.992883 0.39268216
1.1441016 10.991404 0.3940886
1.1313491 10.988254 0.4106192
1.1337413 10.983956 0.42093176
1.1337413 10.983956 0.42093176
1.1291414 10.985171 0.42340025
1.1232356 10.985204 0.41902548
1.1155856 10.985104 0.40716299
1.1161619 10.983616 0.39513695
1.1076052 10.982546 0.38561589
1.1076052 10.982546 0.38561589
1.0936563 10.9832 0.38252619
1.0906276 10.982382 0.38685045
1.0920527 10.979258 0.39071125
1.1142478 10.972387 0.40237483
1.1373781 10.966084 0.40378779
1.1373781 10.966084 0.40378779
1.1560698 10.965261 0.39563829
1.1651866 10.963557 0.39238867
1.1953951 10.957726 0.38452566
1.2290194 10.949039 0.39707381
1.2673951 10.9388 0.41551912
1.2673951 10.9388 0.41551912
1.2996038 10.935766 0.43805796
1.3147554 10.931971 0.44218048
1.3555193 10.923891 0.43792644
1.4095702 10.914843 0.42024347
1.466107 10.904017 0.41000244
1.466107 10.904017 0.41000244
1.5074742 10.892893 0.42166302
1.5241349 10.888238 0.43132013
1.5851222 10.873027 0.44774741
1.6497971 10.859061 0.44485164
1.6988513 10.849078 0.43306127
1.6988513 10.849078 0.43306127
1.7642565 10.836555 0.41236231
1.777109 10.833609 0.41104487
1.8352563 10.819584 0.4075366
1.904431 10.80214 0.4092319
1.977334 10.783346 0.41420874
1.977334 10.783346 0.41420874
2.0249181 10.77421 0.41273776
2.0387599 10.770319 0.41164851
2.1002498 10.753542 0.40700254
2.1712697 10.734473 0.40581006
2.2306626 10.717635 0.40345874
2.2306626 10.717635 0.40345874
2.2870214 10.702147 0.40590203
2.314836 10.693462 0.4082973
2.3767636 10.673122 0.41633624
2.4485617 10.65029 0.42232299
2.5214541 10.627018 0.42535758
2.5214541 10.627018 0.42535758
2.5904953 10.606598 0.42319632
2.6065257 10.601344 0.42225924
2.6965821 10.572763 0.41116586
2.7646656 10.549524 0.4103736
2.836236 10.522917 0.41804606
2.836236 10.522917 0.41804606
2.8918045 10.50414 0.4299069
2.9137447 10.495767 0.43228248
2.9985032 10.464975 0.43111977
3.0785549 10.43578 0.42423323
3.147599 10.408456 0.42065892
3.1922061 10.390045 0.41934922
3.1922061 10.390045 0.41934922
3.2699015 10.358863 0.41994286
3.296824 10.348041 0.41859433
3.3543403 10.323296 0.42486042
3.4049385 10.300304 0.42880771
3.460999 10.27466 0.42366853
3.5336487 10.243471 0.41857621
3.5336487 10.243471 0.41857621
3.6095345 10.208625 0.42487717
3.6165352 10.205248 0.42624378
3.6665342 10.180165 0.43717864
3.7285681 10.148512 0.45202971
3.7928278 10.117771 0.46044615
3.8562057 10.086111 0.46169063
3.8562057 10.086111 0.46169063
3.9117634 10.058105 0.45750806
3.9331312 10.048086 0.44912037
4.0032887 10.014574 0.43612719
4.0889935 9.9687662 0.43490481
4.1689658 9.9231443 0.45639083
4.1689658 9.9231443 0.45639083
4.2421556 9.8813238 0.47380465
4.2645311 9.86901 0.47151366
4.3308854 9.8334761 0.44923627
4.3948803 9.7978268 0.42919186
4.4752879 9.7525568 0.42069185
4.4752879 9.7525568 0.42069185
4.5398016 9.7126255 0.42940065
4.5538111 9.7036161 0.43462554
4.6123466 9.6671419 0.43394867
4.6600475 9.6397362 0.43462661
4.7226286 9.6003952 0.43041894
4.7226286 9.6003952 0.43041894
4.7781091 9.5647774 0.43004334
4.8083725 9.5443764 0.43496144
4.8750901 9.4975348 0.46312588
4.9305601 9.4615555 0.46992144
4.9874082 9.4232893 0.45867929
4.9874082 9.4232893 0.45867929
5.0477438 9.3815069 0.45129475
5.0675859 9.3675337 0.45067397
5.1321659 9.3216457 0.45121166
5.2040834 9.270998 0.46951088
5.2761803 9.2180376 0.47038624
5.2761803 9.2180376 0.47038624
5.3390894 9.1718998 0.46467456
5.3631473 9.1542015 0.46301174
5.4264917 9.1086168 0.44727209
5.4899073 9.0620613 0.43082392
5.5341563 9.0252342 0.43609217
5.5858355 8.9810047 0.43780234
5.5858355 8.9810047 0.43780234
5.6426682 8.932188 0.44219616
5.6480856 8.9275217 0.44204718
5.6819272 8.8996868 0.44533816
5.7160664 8.8670588 0.44725078
5.7577944 8.828392 0.44709212
5.7937913 8.7956409 0.44349948
5.7937913 8.7956409 0.44349948
5.8287802 8.7608671 0.44163483
5.8334169 8.7557564 0.44144362
5.8523893 8.7324371 0.440905
5.8714132 8.7069607 0.44819647
5.8920794 8.6811008 0.4591974
5.8920794 8.6811008 0.4591974
5.906076 8.6614695 0.46025974
5.9091797 8.6558208 0.45954695
5.9223313 8.6373425 0.45704857
5.9391661 8.615591 0.45077294
5.9511557 8.5966091 0.45172268
5.9511557 8.5966091 0.45172268
5.960897 8.57973 0.45604521
5.9624376 8.576108 0.45781115
5.9644899 8.5631914 0.46698186
5.9695878 8.5480576 0.46937865
5.9765692 8.5341301 0.46217605
5.9765692 8.5341301 0.46217605
5.981257 8.5209513 0.45122102
5.9816589 8.5128422 0.4477745
5.9856772 8.500246 0.44374371
5.9855499 8.4890804 0.44130346
5.9799781 8.4813261 0.45096606
5.9799781 8.4813261 0.45096606
5.9834294 8.4688988 0.45683935
5.9845462 8.4648294 0.45566344
5.9873815 8.4516163 0.46056712
5.9878459 8.4407911 0.45607692
5.9808178 8.4345083 0.4549177
5.9808178 8.4345083 0.4549177
5.9730277 8.431716 0.4515892
5.9744282 8.4259663 0.44969454
5.9724383 8.4175673 0.44441661
5.9733829 8.40345 0.45590204
5.983212 8.383462 0.46969563
5.983212 8.383462 0.46969563
6.0041075 8.3589058 0.4641552
6.0081248 8.3537254 0.4636631
6.0255146 8.3320932 0.4496063
6.0460649 8.3066034 0.43817461
6.0653539 8.2817965 0.43465334
6.0653539 8.2817965 0.43465334
6.0901284 8.2499561 0.44251627
6.0950499 8.2434731 0.44527918
6.1147442 8.216547 0.45124236
6.1314764 8.1927137 0.45449138
6.1467357 8.1718216 0.44202596
6.1467357 8.1718216 0.44202596
6.157702 8.1538563 0.43635243
6.1660705 8.1403694 0.43216071
6.1754613 8.1211624 0.43376014
6.1929173 8.0969067 0.43157831
6.2211461 8.0629129 0.43105805
6.2211461 8.0629129 0.43105805
6.2372699 8.040678 0.42902341
6.2418094 8.0337687 0.42729676
6.2638149 8.0043087 0.42960757
6.2861185 7.9735289 0.42955306
6.3053021 7.946629 0.42115882
6.3053021 7.946629 0.42115882
6.3235469 7.9221406 0.41515815
6.3275952 7.9143624 0.41233021
6.3483481 7.8854032 0.40914786
6.3714495 7.8538613 0.40686941
6.3943157 7.822732 0.40887761
6.3943157 7.822732 0.40887761
6.4308882 7.7804389 0.4072237
6.4383979 7.7715578 0.40570915
6.4677062 7.7345085 0.40431795
6.496336 7.6971254 0.39823097
6.5209928 7.6636419 0.40353298
6.5209928 7.6636419 0.40353298
6.547771 7.6279998 0.40305883
6.5524716 7.6215773 0.40218365
6.5836473 7.5821152 0.39759627
6.6117811 7.5455856 0.39036784
6.6355429 7.5095153 0.39371637
6.6355429 7.5095153 0.39371637
6.6531639 7.4817061 0.39339066
6.6627922 7.4660783 0.39540961
6.6757936 7.4420266 0.40173042
6.7012143 7.4039736 0.40940553
6.7398715 7.3547397 0.40263161
6.7398715 7.3547397 0.40263161
6.763073 7.3178954 0.39644939
6.7709899 7.3059454 0.39430225
6.7972021 7.2689967 0.3942726
6.8239346 7.2298856 0.39392716
6.8405905 7.2012138 0.39338678
6.8538861 7.1759639 0.38230488
6.8538861 7.1759639 0.38230488
6.8665323 7.1470404 0.380101
6.8684983 7.1436267 0.38054907
6.8957167 7.1027155 0.37896168
6.9300265 7.0526609 0.39288658
6.9539475 7.01578 0.39477095
6.9723568 6.9849596 0.38887233
6.9723568 6.9849596 0.38887233
7.0019894 6.9398632 0.3840746
7.009253 6.9291973 0.38466197
7.0341887 6.8901162 0.38556808
7.0534072 6.8497777 0.41088656
7.0841408 6.8003411 0.42544666
7.0841408 6.8003411 0.42544666
7.1127954 6.757534 0.41846117
7.124043 6.7393064 0.41119665
7.1413078 6.7080722 0.40708357
7.1702619 6.6598792 0.40942615
7.206727 6.5996885 0.41644821
7.2367697 6.5486979 0.41873959
7.2367697 6.5486979 0.41873959
7.2559485 6.5124974 0.41317183
7.2602072 6.5045447 0.41134819
7.2868018 6.4602518 0.40337127
7.3221893 6.4034777 0.39578891
7.3498979 6.3463092 0.4040578
7.3498979 6.3463092 0.4040578
7.3678198 6.3101015 0.40723926
7.3795795 6.2883897 0.40529385
7.4096937 6.2343669 0.40144625
7.4338732 6.1854706 0.40034932
7.4571867 6.1398211 0.3976357
7.4571867 6.1398211 0.3976357
7.4753237 6.0992122 0.40114278
7.4840431 6.0790772 0.4077099
7.5096726 6.0294461 0.41652057
7.5420108 5.9696536 0.42177048
7.567852 5.9191313 0.42258322
7.5934796 5.8668275 0.42402521
7.5934796 5.8668275 0.42402521
7.622324 5.8102016 0.42027825
7.6311641 5.7927527 0.41865349
7.6578388 5.7396588 0.41704598
7.6806836 5.6891518 0.41817898
7.7023482 5.6422467 0.417869
7.7276325 5.588069 0.41710714
7.7276325 5.588069 0.41710714
7.7502522 5.5387268 0.40873396
7.7579861 5.5214238 0.40544137
7.7769947 5.4736719 0.40246287
7.7988744 5.4222312 0.40071782
7.8200431 5.3713717 0.39880121
7.8438482 5.3142548 0.39523113
7.8438482 5.3142548 0.39523113
7.8606763 5.2683191 0.40123346
7.8643093 5.2585211 0.40231988
7.8833141 5.2071009 0.40683892
7.9015479 5.1564937 0.40943441
7.9187284 5.1065068 0.41329196
7.9187284 5.1065068 0.41329196
7.9363699 5.0563908 0.41348717
7.9445267 5.0328498 0.41418442
7.9627962 4.9807386 0.41434619
7.9837437 4.9208379 0.4183971
7.9992013 4.8726888 0.42380461
7.9992013 4.8726888 0.42380461
8.0105629 4.8304935 0.42300281
8.0137501 4.8182225 0.42275378
8.0229349 4.7793226 0.42496729
8.0307922 4.7453294 0.42690244
8.0380611 4.7074738 0.42587546
8.0380611 4.7074738 0.42587546
8.0435696 4.6746697 0.42746124
8.0441351 4.6590385 0.43497124
8.0489206 4.6301045 0.4354676
8.0523481 4.6007438 0.43575665
8.0525274 4.5736532 0.44116691
8.0525274 4.5736532 0.44116691
8.0516129 4.5500202 0.4432312
8.0508957 4.5398293 0.44794506
8.0450478 4.5273275 0.45035735
8.0411425 4.5094433 0.4526194
8.0420456 4.4812803 0.45503959
8.0420456 4.4812803 0.45503959
8.0408173 4.4594083 0.45513248
8.0383568 4.4497137 0.4616507
8.02946 4.4373412 0.46745294
8.0274248 4.4152265 0.46923769
8.0221415 4.3990946 0.47345233
8.0221415 4.3990946 0.47345233
8.0135317 4.3931599 0.46837881
8.0087671 4.3858204 0.46948227
8.0050659 4.37005 0.46997583
8.0022554 4.3499899 0.47272444
7.997777 4.3274975 0.48343077
7.986248 4.3252354 0.49608156
7.986248 4.3252354 0.49608156
7.9753919 4.3215742 0.47916576
7.972405 4.3171029 0.4745881
7.9693766 4.3036904 0.47740448
7.966043 4.2868624 0.47071415
7.9587913 4.2775559 0.46931118
7.9490733 4.2724347 0.46857119
7.9490733 4.2724347 0.46857119
7.9415779 4.2634683 0.46341264
7.9392099 4.2597837 0.46274334
7.9321127 4.2495651 0.46705723
7.9234486 4.2409959 0.46482274
7.9084945 4.234086 0.46547645
7.8949394 4.2372456 0.46359599
7.8949394 4.2372456 0.46359599
7.8851995 4.2344346 0.45644522
7.8815937 4.2301617 0.45584515
7.8767743 4.2127938 0.46198815
7.8733191 4.1938338 0.46785986
7.8713746 4.1713314 0.46481895
7.8691025 4.1485023 0.46951386
7.8691025 4.1485023 0.46951386
7.8691921 4.1216803 0.46718755
7.8693628 4.1153193 0.46716967
7.8716044 4.0828071 0.47073564
7.874445 4.0477972 0.4735181
7.8758211 4.0208302 0.47428668
7.8744211 3.9964621 0.4769741
7.8744211 3.9964621 0.4769741
7.8731966 3.9718008 0.48033437
7.8734069 3.962461 0.48091117
7.8735108 3.9329076 0.4783558
7.8795471 3.897213 0.46296015
7.8850751 3.8614638 0.45048368
7.8873405 3.8304443 0.45670959
7.8873405 3.8304443 0.45670959
7.8917561 3.7878039 0.45801827
7.8926892 3.7790351 0.45918566
7.8971276 3.7403429 0.46145487
7.8990622 3.7029827 0.46257818
7.8971262 3.6793985 0.46167856
7.8971262 3.6793985 0.46167856
7.8961492 3.6525557 0.45740944
7.8928671 3.6388965 0.45902455
7.8919373 3.6099181 0.46640608
7.8902326 3.5824015 0.46193954
7.888865 3.5571947 0.46192718
7.888865 3.5571947 0.46192718
7.884223 3.5377738 0.46191981
7.8815947 3.5294468 0.45632857
7.8760018 3.5126216 0.4562259
7.8709202 3.4925296 0.45604825
7.8630953 3.4791381 0.45808876
7.8630953 3.4791381 0.45808876
7.853622 3.4661407 0.4595851
7.8497186 3.4602334 0.45996073
7.8431191 3.447422 0.45795602
7.8371139 3.4291053 0.46103498
7.8290386 3.4173822 0.46095234
7.8207631 3.4020627 0.46279702
7.8207631 3.4020627 0.46279702
7.8105369 3.3917036 0.45934328
7.8095093 3.3907762 0.45879686
7.7990007 3.3814421 0.45845011
7.7914248 3.3658001 0.4634375
7.7839108 3.3465779 0.46723261
7.7839108 3.3465779 0.46723261
7.7734575 3.3406365 0.46924201
7.7702217 3.3406494 0.46892694
7.7572231 3.3378971 0.46504954
7.7480736 3.3277397 0.4628461
7.7394657 3.3137426 0.46304819
7.7394657 3.3137426 0.46304819
7.7325649 3.2976418 0.46321231
7.7312417 3.2938347 0.46327463
7.7245259 3.274163 0.46240965
7.7214799 3.2482336 0.4570272
7.7174673 3.225214 0.45619389
7.7174673 3.225214 0.45619389
7.711113 3.1973903 0.45575806
7.711113 3.1973903 0.45575806
7.7044234 3.1796587 0.44750181
7.6954803 3.1695619 0.44756961
7.6877985 3.1500499 0.44874442
7.6873379 3.1481988 0.44852057
7.6809702 3.1278775 0.44756669
7.679132 3.1244943 0.44850898
7.6704988 3.1090853 0.44727015
7.6637979 3.0967157 0.44115162
7.6530848 3.0895071 0.43612492
7.6530848 3.0895071 0.43612492
7.6447291 3.0752697 0.42974582
7.6426368 3.0694239 0.43015194
7.6383801 3.0447795 0.43211597
7.6347666 3.0174515 0.42685059
7.6288033 2.9973214 0.42560881
7.6288033 2.9973214 0.42560881
7.6273098 2.9688714 0.42004725
7.6271472 2.9574862 0.41896158
7.6250062 2.9228189 0.41960377
7.6219697 2.8989005 0.41802967
7.6165533 2.8772354 0.41886109
7.6165533 2.8772354 0.41886109
7.606914 2.8589332 0.42587706
7.6047349 2.8489022 0.4286426
7.5992613 2.8226116 0.42733303
7.5946331 2.8046231 0.42327198
7.5872698 2.7913063 0.41917974
7.5872698 2.7913063 0.41917974
7.5783482 2.7759099 0.41801161
7.5738144 2.7643631 0.41514996
7.5676794 2.7483265 0.41525543
7.5586004 2.7351921 0.42069578
7.5460396 2.7211015 0.42320347
7.5460396 2.7211015 0.42320347
7.5382452 2.7112422 0.42841652
7.5362544 2.7091992 0.42773479
7.5263047 2.6955962 0.42390719
7.5163107 2.6868556 0.42226925
7.507184 2.6768425 0.42085519
7.507184 2.6768425 0.42085519
7.4946003 2.6644907 0.42350104
7.4934874 2.6635625 0.42344064
7.4824834 2.6580698 0.42505345
7.4712124 2.643152 0.42509666
7.4626784 2.6325386 0.4272356
7.4626784 2.6325386 0.4272356
7.448976 2.626858 0.42893535
7.4446125 2.6261852 0.42790404
7.4337449 2.6212347 0.42470601
7.4231415 2.6132643 0.42451626
7.4122963 2.6060491 0.4271467
7.4122963 2.6060491 0.4271467
7.4010496 2.5988288 0.43633822
7.3986773 2.5978465 0.43679813
7.387558 2.5911651 0.43486261
7.3762169 2.5838602 0.43115389
7.3667059 2.5792139 0.42749122
7.3667059 2.5792139 0.42749122
7.3532839 2.5710647 0.42413321
7.3493724 2.5690434 0.42393345
7.3388486 2.562506 0.42552596
7.327136 2.557445 0.42637184
7.3165593 2.5519741 0.43058962
7.3049054 2.5425689 0.43607998
7.3049054 2.5425689 0.43607998
7.2928834 2.5382395 0.43814585
7.2885728 2.5370698 0.43709579
7.2772465 2.5369174 0.4339987
7.2650032 2.5356808 0.43498448
7.2544007 2.528311 0.43373761
7.2429872 2.5215676 0.43853241
7.2429872 2.5215676 0.43853241
7.2325382 2.5082912 0.44012365
7.2310495 2.5037737 0.4410105
7.2252169 2.4827402 0.43967602
7.2172422 2.459383 0.43897432
7.2093182 2.4402597 0.43837407
7.2093182 2.4402597 0.43837407
7.2034898 2.4230242 0.43532786
7.2010651 2.4172852 0.43506885
7.1923237 2.4032946 0.43936974
7.1844611 2.3902993 0.44265965
7.1759949 2.3688126 0.44512561
7.1702561 2.3413262 0.44338101
7.1702561 2.3413262 0.44338101
7.1665044 2.3142781 0.43551663
7.1655154 2.3085575 0.43494236
7.1609235 2.2827284 0.4337852
7.151629 2.2629554 0.43817011
7.1442442 2.243669 0.44289929
7.1442442 2.243669 0.44289929
7.1353211 2.2235594 0.44641536
7.1328983 2.2168512 0.44621155
7.1265969 2.1921754 0.44571084
7.1215787 2.1639276 0.44520968
7.11764 2.1380131 0.44220719
7.1121297 2.1075351 0.44176045
7.1121297 2.1075351 0.44176045
7.105782 2.0826621 0.44672501
7.104095 2.0772314 0.44731948
7.0948954 2.0586679 0.44685727
7.0865903 2.0367222 0.44790566
7.0778666 2.0156868 0.44566083
7.0778666 2.0156868 0.44566083
7.0705104 1.99764 0.44273317
7.0680652 1.9913797 0.44225445
7.0606155 1.9772974 0.4379738
7.0516486 1.9630811 0.43979794
7.0421848 1.9492257 0.44130343
7.0321245 1.9345828 0.44631454
7.0321245 1.9345828 0.44631454
7.0220704 1.9220595 0.4486936
7.0176821 1.9153358 0.44748726
7.0070534 1.904253 0.44868609
6.9958291 1.8941529 0.44081303
6.9863844 1.8843764 0.4353317
6.9863844 1.8843764 0.4353317
6.972878 1.8758616 0.43302998
6.9705691 1.873785 0.43349317
6.9606996 1.8619173 0.43341014
6.9515319 1.8518389 0.43407989
6.9379716 1.8452326 0.43610722
6.9254842 1.8404073 0.43689266
6.9254842 1.8404073 0.43689266
6.9149156 1.8300607 0.43339872
6.9114008 1.8278828 0.43249324
6.9011269 1.8225465 0.43175042
6.8894668 1.8163007 0.43154016
6.8787069 1.8126836 0.43465668
6.8787069 1.8126836 0.43465668
6.8665347 1.8034104 0.43665105
6.8615365 1.8001766 0.43668288
6.8503394 1.7930467 0.43626246
6.8388515 1.7868547 0.434863
6.8264742 1.785447 0.42996699
6.8140841 1.7801046 0.42735484
6.8140841 1.7801046 0.42735484
6.803196 1.7726239 0.42778212
6.799304 1.7693887 0.42821959
6.7902884 1.7645742 0.42999855
6.7772403 1.7608932 0.43341297
6.762558 1.7528006 0.43993571
6.7506051 1.7467408 0.44171429
6.7506051 1.7467408 0.44171429
6.7389345 1.7435606 0.4345299
6.7360282 1.7427058 0.43346035
6.7241454 1.7400703 0.43272749
6.7086754 1.7316848 0.43262282
6.6965461 1.7249515 0.43671212
6.6965461 1.7249515 0.43671212
6.6826468 1.7180657 0.44022742
6.6796513 1.7174629 0.44075134
6.6663423 1.7146858 0.44173071
6.6547122 1.7098047 0.43913403
6.6441889 1.7062657 0.43517944
6.6311917 1.7012509 0.43197882
6.6311917 1.7012509 0.43197882
6.6212101 1.6949174 0.43348995
6.6184583 1.6932126 0.43402007
6.6071758 1.6905216 0.42942506
6.5939803 1.6821159 0.43171108
6.5838757 1.6745456 0.43425113
6.5838757 1.6745456 0.43425113
6.5724339 1.6687936 0.42926475
6.5671301 1.6671106 0.42739582
6.5544529 1.6639985 0.42534813
6.5418501 1.6588581 0.42726502
6.5292959 1.6533163 0.42959639
6.5292959 1.6533163 0.42959639
6.5169592 1.646632 0.43346176
6.5129609 1.6438888 0.43471086
6.4992533 1.6374627 0.43643853
6.4864302 1.6297469 0.43835226
6.4735813 1.6307627 0.43488538
6.4735813 1.6307627 0.43488538
6.4616385 1.6283062 0.43095949
6.4576807 1.6257368 0.43086854
6.4464312 1.618328 0.43210855
6.4342437 1.6058388 0.4317953
6.4213943 1.6018384 0.43574971
6.4213943 1.6018384 0.43574971
6.4092522 1.5954187 0.43655378
6.4037666 1.5930711 0.43719617
6.3906317 1.5866379 0.43600863
6.3789358 1.5811452 0.42874235
6.3678308 1.5783223 0.42866567
6.3678308 1.5783223 0.42866567
6.3558402 1.5728806 0.43185836
6.3507438 1.5692389 0.43453637
6.339437 1.5625837 0.43722478
6.3272214 1.5567232 0.43993306
6.3147635 1.5525217 0.44178039
6.3016038 1.5495442 0.44465712
6.3016038 1.5495442 0.44465712
6.2905993 1.5418642 0.44203663
6.288197 1.5403208 0.44051576
6.2766294 1.5345728 0.4454743
6.2636547 1.534148 0.44908139
6.2502961 1.5288287 0.44801182
6.2379823 1.5204892 0.44891509
6.2379823 1.5204892 0.44891509
6.2238054 1.5145663 0.45064697
6.2225132 1.514012 0.45037845
6.2101917 1.5076188 0.44696993
6.1984563 1.50516 0.44176823
6.1872039 1.5010852 0.44133136
6.1872039 1.5010852 0.44133136
6.1721859 1.4935766 0.44467294
6.169414 1.4925854 0.44539943
6.1580343 1.4876566 0.44752026
6.1441684 1.4819254 0.44810975
6.1299014 1.4784122 0.44871873
6.1299014 1.4784122 0.44871873
6.1170111 1.4811933 0.44139218
6.111064 1.4800595 0.44228721
6.0991592 1.4742091 0.44117588
6.0890164 1.4678551 0.44182569
6.0753407 1.4640595 0.44454363
6.0625253 1.4603546 0.44717234
6.0625253 1.4603546 0.44717234
6.0513506 1.452436 0.44761401
6.0477009 1.4508222 0.44680986
6.0357575 1.4460047 0.44489664
6.0244761 1.4385474 0.44153634
6.012773 1.4363393 0.43632272
6.012773 1.4363393 0.43632272
5.9999676 1.4288146 0.44169185
5.9945445 1.4261566 0.44325033
5.9820781 1.4214239 0.44356912
5.969727 1.4173874 0.4451696
5.9563127 1.4113692 0.4433108
5.9563127 1.4113692 0.4433108
5.9457841 1.4056487 0.44329366
5.9429135 1.4050752 0.44236755
5.9314404 1.4037442 0.4377802
5.9207993 1.3969657 0.43494204
5.9097147 1.390507 0.43407127
5.8978043 1.3834192 0.44198295
5.8978043 1.3834192 0.44198295
5.8865004 1.3795199 0.44284666
5.8823586 1.3781316 0.44284481
5.8712854 1.3757935 0.44136783
5.8600745 1.3716098 0.43520191
5.8485551 1.3645033 0.43404076
5.8357801 1.3587639 0.43311873
5.8357801 1.3587639 0.43311873
5.824976 1.3547463 0.43318713
5.821094 1.3539003 0.43384454
5.8090162 1.3474727 0.43706062
5.7975874 1.3398453 0.44204947
5.7845926 1.3353601 0.44723633
5.7813554 1.3351836 0.44994
5.7710624 1.3336072 0.45116252
5.7661867 1.3325843 0.44536918
5.7553606 1.3287441 0.43876487
5.7420568 1.3203534 0.44422033
5.7295132 1.3133652 0.44438288
5.7295132 1.3133652 0.44438288
5.7177558 1.3109903 0.44303232
5.713695 1.3103008 0.44247547
5.7012153 1.3077536 0.44368932
5.6898441 1.3025547 0.44130135
5.6774836 1.2949712 0.43880662
5.6774836 1.2949712 0.43880662
5.6656494 1.2920192 0.43842626
5.6612916 1.2912999 0.43853384
5.6488996 1.2889459 0.44152856
5.6361079 1.280879 0.43749797
5.6238251 1.2762716 0.43807974
5.6238251 1.2762716 0.43807974
5.609663 1.2725043 0.43913627
5.607307 1.2718126 0.43826562
5.5962186 1.2669843 0.43279487
5.5840254 1.2618979 0.43811995
5.5706034 1.2600608 0.43810746
5.5706034 1.2600608 0.43810746
5.5587049 1.2537892 0.44040844
5.5549645 1.2509642 0.44051009
5.5429106 1.2464697 0.44425738
5.531014 1.2468081 0.44440833
5.5179763 1.2439948 0.44093552
5.5054421 1.2356082 0.43855873
5.5054421 1.2356082 0.43855873
5.495338 1.2292566 0.43821248
5.4928584 1.2278368 0.43752334
5.4812617 1.226748 0.42986798
5.4652452 1.2317712 0.42890802
5.4520721 1.2257427 0.43775368
5.4427705 1.2144513 0.43576235
5.4427705 1.2144513 0.43576235
5.4311395 1.2086358 0.43210301
5.4265437 1.2087331 0.43125486
5.414537 1.2087345 0.42748606
5.4028091 1.2060949 0.42490888
5.3911366 1.2011837 0.42315543
5.3773026 1.1934079 0.42794397
5.3773026 1.1934079 0.42794397
5.3649445 1.1883234 0.4360635
5.3609943 1.186464 0.43702725
5.347599 1.1838523 0.43732515
5.3326674 1.1836733 0.43639964
5.3181424 1.1760296 0.4363445
5.3181424 1.1760296 0.4363445
5.3057499 1.1699315 0.43155125
5.3029013 1.169485 0.43135956
5.2896523 1.1677201 0.43332905
5.2775731 1.1661676 0.43550101
5.2650332 1.1628619 0.43588042
5.2509408 1.1585767 0.4352645
5.2509408 1.1585767 0.4352645
5.239264 1.1529801 0.43124729
5.2379665 1.1525977 0.43057799
5.2263994 1.1491855 0.42510003
5.214426 1.1448079 0.4225215
5.2012873 1.1429209 0.42232546
5.1870885 1.1354257 0.42497596
5.1870885 1.1354257 0.42497596
5.1726084 1.1305696 0.42629308
5.1708851 1.1297733 0.42678192
5.1596484 1.1252302 0.42737535
5.1470308 1.1232809 0.42254472
5.1336145 1.120339 0.41869631
5.1207108 1.1176996 0.41879979
5.1207108 1.1176996 0.41879979
5.1091523 1.1083082 0.42184851
5.1067162 1.1059816 0.42178369
5.0933962 1.1019133 0.42041034
5.0839028 1.0980326 0.42400795
5.0713277 1.0933255 0.42440128
5.0593925 1.088227 0.4210287
5.0593925 1.088227 0.4210287
5.0439763 1.084682 0.41797611
5.0426044 1.0843031 0.4175328
5.0313416 1.0828129 0.41498873
5.0163813 1.0773779 0.41907856
5.0043674 1.0753305 0.42073849
5.0043674 1.0753305 0.42073849
4.9897532 1.072181 0.42160845
4.9852834 1.0713309 0.4229154
4.9717665 1.0663978 0.42184606
4.9604287 1.0622346 0.42150611
4.946918 1.0621179 0.42413247
4.946918 1.0621179 0.42413247
4.932673 1.0579637 0.42401075
4.9281182 1.0564204 0.4236393
4.9147048 1.051982 0.42944753
4.9016318 1.0423892 0.43023998
4.88908 1.038012 0.43055502
4.88908 1.038012 0.43055502
4.8744116 1.0371649 0.42866364
4.8727341 1.0369552 0.4282102
4.8600779 1.0352943 0.42521146
4.8495121 1.0237156 0.42595264
4.8367343 1.0201154 0.42692837
4.8231721 1.0170573 0.43020993
4.8231721 1.0170573 0.43020993
4.8113542 1.0151163 0.43158042
4.8070097 1.0142806 0.43138811
4.7989249 1.0061297 0.42607093
4.7844143 1.0012716 0.42701977
4.772161 0.99392664 0.42700514
4.7710428 0.99356276 0.42689952
4.7578306 0.99177217 0.42564422
4.7548618 0.99118084 0.42601538
4.742692 0.98266715 0.43110296
4.7275362 0.9798435 0.43302161
4.7141371 0.97481245 0.43592659
4.7141371 0.97481245 0.43592659
4.6993103 0.96945512 0.43764931
4.6965556 0.96961987 0.43773988
4.6844358 0.97452527 0.43441278
4.6726203 0.96603489 0.42556116
4.6613131 0.95414633 0.42785621
4.6613131 0.95414633 0.42785621
4.6482649 0.95164865 0.42852417
4.6434793 0.95183891 0.42964798
4.632442 0.94817013 0.43402413
4.616941 0.94257879 0.43788806
4.6039357 0.93872607 0.43744597
4.6039357 0.93872607 0.43744597
4.5908189 0.93632138 0.43608063
4.5864534 0.93628132 0.43529004
4.5740585 0.93275827 0.43881929
4.5592694 0.92943901 0.44225961
4.5465589 0.92615873 0.44181728
4.5465589 0.92615873 0.44181728
4.5339928 0.91960162 0.44592512
4.5298223 0.91726339 0.44639266
4.5176034 0.91339451 0.44785464
4.5032282 0.91185027 0.44383466
4.4903603 0.91115534 0.44102064
4.4903603 0.91115534 0.44102064
4.4766021 0.90470797 0.44140667
4.4737926 0.90321052 0.44225466
4.4638085 0.89733613 0.44219545
4.4487624 0.89559883 0.44502938
4.4346304 0.88999379 0.44575116
4.4346304 0.88999379 0.44575116
4.4212608 0.88769591 0.44662154
4.4186683 0.88757014 0.44626677
4.40765 0.88090056 0.43547761
4.3938065 0.87533736 0.43528521
4.380868 0.87003946 0.43616965
4.3659053 0.87233394 0.44073826
4.3659053 0.87233394 0.44073826
4.3530726 0.86703366 0.44483227
4.3504882 0.86546457 0.44482839
4.3372016 0.85725302 0.44867003
4.3237252 0.85372055 0.44960532
4.3102646 0.85570264 0.44357684
4.3102646 0.85570264 0.44357684
4.2948246 0.85756242 0.44379562
4.2921238 0.85317844 0.44366738
4.2795053 0.84493166 0.44676378
4.2670698 0.84073544 0.44709054
4.2536883 0.8424536 0.44794571
4.2536883 0.8424536 0.44794571
4.2389054 0.84103614 0.44907773
4.2331586 0.83607119 0.44992802
4.2204099 0.82857651 0.44540295
4.2067399 0.82402253 0.44766483
4.1896067 0.82349461 0.44898948
4.1896067 0.82349461 0.44898948
4.1801853 0.82308096 0.44981393
4.1770892 0.82281643 0.45026541
4.1635323 0.81846434 0.45374116
4.1479712 0.81201965 0.45466018
4.1357908 0.81145495 0.45591441
4.1357908 0.81145495 0.45591441
4.1240048 0.81272256 0.45087785
4.1185813 0.81300002 0.44928804
4.1076922 0.80929583 0.44759703
4.096591 0.80333471 0.44682652
4.0833364 0.79971397 0.4507513
4.0690646 0.79999799 0.45126724
4.0690646 0.79999799 0.45126724
4.0572286 0.7993055 0.45591
4.0539179 0.79850054 0.4561969
4.0400043 0.7951023 0.45486572
4.0279231 0.79186594 0.4489736
4.0145173 0.78847498 0.44708747
4.0145173 0.78847498 0.44708747
4.0015635 0.78554207 0.44997033
3.9983814 0.78448725 0.45117706
3.9853606 0.78148556 0.45251963
3.9728017 0.77892274 0.45277032
3.9597912 0.7777195 0.45187461
3.9597912 0.7777195 0.45187461
3.9505944 0.77285171 0.44621694
3.9447682 0.77209711 0.44634756
3.9327054 0.7688216 0.44265866
3.919842 0.76749396 0.43927369
3.9029207 0.76602226 0.44550583
3.9029207 0.76602226 0.44550583
3.8933563 0.75956208 0.44497725
3.8919423 0.75904292 0.44511849
3.8792906 0.75534832 0.44526088
3.8676176 0.75399244 0.44337928
3.8528748 0.75428885 0.44403303
3.839906 0.7513693 0.44512925
3.839906 0.7513693 0.44512925
3.8257291 0.74927819 0.44324732
3.824271 0.74933618 0.44320312
3.8125174 0.74808216 0.44529405
3.8002579 0.74467576 0.44483733
3.7880607 0.74189603 0.44572446
3.7759421 0.73890114 0.44422024
3.7759421 0.73890114 0.44422024
3.7645886 0.73301631 0.44039455
3.7606547 0.73215407 0.43885949
3.7478459 0.7327165 0.43668121
3.7369101 0.73132002 0.43428192
3.7286944 0.72032464 0.42932847
3.7150614 0.71870577 0.4325006
3.7150614 0.71870577 0.4325006
3.7026412 0.7183795 0.43072182
3.698359 0.71685481 0.4299275
3.6876843 0.71190119 0.42900431
3.6784806 0.70483202 0.42062598
3.6660368 0.70284832 0.41814548
3.6660368 0.70284832 0.41814548
3.6509974 0.70354718 0.41840923
3.6464152 0.70374447 0.419047
3.6335936 0.70057237 0.41889241
3.6235898 0.69383091 0.41620302
3.6109233 0.6904217 0.41555506
3.5981126 0.69088471 0.41433337
3.5981126 0.69088471 0.41433337
3.5864892 0.69043362 0.41260546
3.5827301 0.68979859 0.41180018
3.5724607 0.68638462 0.40479755
3.5603795 0.6832093 0.40347365
3.5480843 0.67938775 0.40329078
3.5350406 0.6773333 0.40285835
3.5350406 0.6773333 0.40285835
3.5219448 0.67593831 0.40293846
3.5187011 0.67443544 0.4020015
3.5059576 0.67104411 0.40132666
3.4930391 0.66580713 0.40052822
3.4768746 0.6622197 0.40108329
3.4768746 0.6622197 0.40108329
3.4645693 0.66105169 0.40266526
3.4599164 0.65964115 0.40463671
3.4467547 0.65658438 0.40685627
3.435318 0.65429461 0.40676937
3.4216099 0.65019614 0.40626529
3.4109335 0.6474483 0.40384072
3.4109335 0.6474483 0.40384072
3.3977237 0.64565027 0.40888602
3.394985 0.64482003 0.40850022
3.3830132 0.64112103 0.40654275
3.3698275 0.6354425 0.41014639
3.3566732 0.6314705 0.4122352
3.3441949 0.6279276 0.41402608
3.3441949 0.6279276 0.41402608
3.3314443 0.62746692 0.4133738
3.3286374 0.6274479 0.41244406
3.3169241 0.62660438 0.41221163
3.3051705 0.62182182 0.411192
3.2923448 0.61492705 0.40706122
3.2793434 0.61292654 0.4077163
3.2793434 0.61292654 0.4077163
3.2658656 0.61004001 0.40934044
3.2617779 0.60939389 0.40944922
3.2484052 0.60587943 0.410368
3.2336421 0.60302174 0.41349193
3.2184303 0.60200238 0.41419622
3.2184303 0.60200238 0.41419622
3.2050719 0.5987817 0.41021657
3.2023287 0.59809297 0.409789
3.1895273 0.59373647 0.40994334
3.1742697 0.59074408 0.41293466
3.1592815 0.58966035 0.41392314
3.1592815 0.58966035 0.41392314
3.1466274 0.58780092 0.4139663
3.1428437 0.58669281 0.41333464
3.1307259 0.58354461 0.41142222
3.1154103 0.57927883 0.41118094
3.1013405 0.57606959 0.40946195
3.1013405 0.57606959 0.40946195
3.0876496 0.57575423 0.40980011
3.0833557 0.5752238 0.410478
3.0686481 0.5727827 0.40985909
3.0564873 0.56729048 0.416278
3.0439968 0.56536913 0.41464362
3.0439968 0.56536913 0.41464362
3.0314786 0.56390572 0.4120141
3.0271778 0.56367022 0.41162005
3.0130415 0.56268644 0.40990242
3.000967 0.55425495 0.40681672
2.9882705 0.55140805 0.40647283
2.9882705 0.55140805 0.40647283
2.9752002 0.55086118 0.4070141
2.9672937 0.55012649 0.40775564
2.9560719 0.54689229 0.40829545
2.9418743 0.54142821 0.40657279
2.9272091 0.54048282 0.40918177
2.9272091 0.54048282 0.40918177
2.9135492 0.54036009 0.40846267
2.9096158 0.54015815 0.40695855
2.8971932 0.53803033 0.40304396
2.8823283 0.53047377 0.40920222
2.8707049 0.52768916 0.41016883
2.8707049 0.52768916 0.41016883
2.8598042 0.52632439 0.40389168
2.8540151 0.52685702 0.40283072
2.8412752 0.52677447 0.40345919
2.8298922 0.52101886 0.41046822
2.8135121 0.51779372 0.41032404
2.8135121 0.51779372 0.41032404
2.8014157 0.51621115 0.41171128
2.7966721 0.51590663 0.41255948
2.783778 0.51507819 0.41426927
2.7709374 0.51028448 0.41327211
2.7590184 0.5089066 0.41292876
2.7590184 0.5089066 0.41292876
2.7431357 0.50615066 0.41271892
2.7391386 0.50549483 0.41227794
2.7263346 0.50252569 0.41257975
2.7125549 0.49828821 0.4127588
2.6980236 0.4961603 0.4133603
2.6980236 0.4961603 0.4133603
2.6835368 0.493857 0.41449282
2.6805732 0.49333858 0.41471985
2.6674373 0.4924902 0.41404501
2.655477 0.4919354 0.41341531
2.6419313 0.48859 0.41153497
2.6419313 0.48859 0.41153497
2.627394 0.48741841 0.40924132
2.6233158 0.48648164 0.40945491
2.610368 0.48255494 0.40895826
2.5996239 0.48072147 0.40673095
2.5858622 0.48236832 0.40775946
2.5858622 0.48236832 0.40775946
2.5734351 0.48096389 0.40660074
2.5698509 0.47949842 0.40578967
2.5583916 0.4738113 0.40405902
2.5475128 0.47040161 0.40308711
2.5319197 0.47255114 0.40399647
2.5319197 0.47255114 0.40399647
2.5184958 0.473634 0.4041293
2.5120132 0.4737958 0.40404955
2.497046 0.47102419 0.40585363
2.4866633 0.46685347 0.40593931
2.4707208 0.46531594 0.40480834
2.4707208 0.46531594 0.40480834
2.4597614 0.46565416 0.40254447
2.4570453 0.46584898 0.4018665
2.443722 0.46516287 0.3996554
2.4333785 0.45734259 0.39788336
2.420758 0.4525519 0.39804384
2.420758 0.4525519 0.39804384
2.4075086 0.45176616 0.39853832
2.4015992 0.45173714 0.39843935
2.3871183 0.45106372 0.39807197
2.3738754 0.44477603 0.39318904
2.3608139 0.44111839 0.39277655
2.3608139 0.44111839 0.39277655
2.3473125 0.43924341 0.39252308
2.3425107 0.43924767 0.39311871
2.3284647 0.43842086 0.3962245
2.3147993 0.43349934 0.39872992
2.301667 0.43217698 0.39976025
2.301667 0.43217698 0.39976025
2.2894511 0.42796671 0.39949846
2.2853782 0.42693272 0.3992328
2.2731082 0.42552885 0.39795035
2.2619941 0.42422745 0.39424306
2.2460804 0.42241222 0.39375973
2.2460804 0.42241222 0.39375973
2.2305608 0.41933084 0.39603227
2.2293453 0.4190959 0.39616555
2.2156255 0.41784421 0.39656764
2.2030156 0.41838381 0.40376669
2.1901736 0.41591278 0.40321973
2.1901736 0.41591278 0.40321973
2.1768618 0.41416967 0.40278548
2.171308 0.41355869 0.40290517
2.1579132 0.412718 0.40381119
2.1458273 0.41208276 0.40453562
2.1300125 0.40891102 0.40765962
2.1300125 0.40891102 0.40765962
2.1168494 0.4059163 0.40884578
2.1111522 0.40612277 0.40866601
2.095283 0.40854815 0.41014424
2.0812674 0.40490195 0.40877885
2.0660775 0.40177119 0.40855882
2.0660775 0.40177119 0.40855882
2.0535591 0.40198654 0.4096446
2.0491781 0.40241662 0.40984163
2.0357177 0.40283582 0.40923902
2.0208857 0.4000608 0.4082467
2.0077024 0.39707041 0.40726748
2.0077024 0.39707041 0.40726748
1.9964412 0.39388615 0.40415773
1.9920888 0.39339003 0.40402451
1.9784381 0.39251348 0.40282705
1.9663231 0.38933554 0.40129641
1.9518872 0.38856781 0.40283707
1.9518872 0.38856781 0.40283707
1.9351242 0.39080936 0.40805349
1.9306144 0.38985714 0.4088172
1.9181768 0.38442478 0.40649718
1.9064522 0.382045 0.40566367
1.8945073 0.38403732 0.40502608
1.8829813 0.38353676 0.40221643
1.8829813 0.38353676 0.40221643
1.8695016 0.38094407 0.40079734
1.8665062 0.3800956 0.40090856
1.8557824 0.37739399 0.40016481
1.8432546 0.37494108 0.40006268
1.8309935 0.37292495 0.39944908
1.8194833 0.37166941 0.39846998
1.8194833 0.37166941 0.39846998
1.8056011 0.37032428 0.3970075
1.8027017 0.37008721 0.3967469
1.7881931 0.36504057 0.3955071
1.7764235 0.36223203 0.39527252
1.7615035 0.36062193 0.39488482
1.7615035 0.36062193 0.39488482
1.7462853 0.36045474 0.39459333
1.7419209 0.35983852 0.39448351
1.7301934 0.35828862 0.39551044
1.7176557 0.35561931 0.39515647
1.7046337 0.35483921 0.39396212
1.6920441 0.35256359 0.39280862
1.6920441 0.35256359 0.39280862
1.6780459 0.34837079 0.39243048
1.6749653 0.34807315 0.39262185
1.6608907 0.34716162 0.39345992
1.6466801 0.3446815 0.39401326
1.6325545 0.34264886 0.39500326
1.6200446 0.34200871 0.39485702
1.6200446 0.34200871 0.39485702
1.6089332 0.33871686 0.39346308
1.6048045 0.33785838 0.39290947
1.5907202 0.33313665 0.39376092
1.5772405 0.3302184 0.3945471
1.5634313 0.33101004 0.39425936
1.5634313 0.33101004 0.39425936
1.5529759 0.33051503 0.3944971
1.5475365 0.32997465 0.39451766
1.5350736 0.32727206 0.39321172
1.5224483 0.32435003 0.39254278
1.5096475 0.32252231 0.39128232
1.4966103 0.32465664 0.39178064
1.4966103 0.32465664 0.39178064
1.4813852 0.32396987 0.39142638
1.4794872 0.32395893 0.39145795
1.465288 0.32345062 0.39186996
1.4528661 0.32191861 0.39220363
1.4421085 0.31958544 0.39451545
1.4288378 0.31801468 0.39437959
1.4288378 0.31801468 0.39437959
1.4154948 0.31738669 0.39361161
1.4115891 0.31675053 0.39331567
1.3990936 0.31447986 0.39175168
1.3883222 0.31033522 0.3894358
1.3741331 0.30825967 0.39083436
1.3741331 0.30825967 0.39083436
1.3583537 0.30649894 0.391186
1.3536464 0.30640751 0.39107287
1.3385925 0.30914995 0.39126456
1.3238069 0.3107326 0.39441395
1.3114809 0.30657914 0.39610636
1.2976724 0.3041262 0.39283285
1.2976724 0.3041262 0.39283285
1.284909 0.30584905 0.39320639
1.2815295 0.30624896 0.39309508
1.2692182 0.30596745 0.39174977
1.2592272 0.29946858 0.39048931
1.2467159 0.29564172 0.39009601
1.2361876 0.29396373 0.38887805
1.2361876 0.29396373 0.38887805
1.2227118 0.29493114 0.38769343
1.2183226 0.29467231 0.38738707
1.204129 0.29202199 0.38716516
1.1900698 0.28947005 0.38759485
1.1760346 0.28747106 0.38772747
1.1760346 0.28747106 0.38772747
1.162894 0.28596672 0.38680306
1.1584635 0.28555933 0.38654628
1.1476978 0.28778374 0.38715973
1.1349422 0.2871156 0.38605523
1.1242081 0.28645912 0.38412073
1.1114379 0.28446764 0.38300374
1.1114379 0.28446764 0.38300374
1.0984151 0.28220513 0.38287342
1.0963324 0.28477341 0.38761526
1.0819067 0.28350317 0.38732085
1.0696703 0.28222859 0.38720816
1.0537045 0.28110087 0.38603491
1.0537045 0.28110087 0.38603491
1.0438465 0.28014046 0.38527623
1.0394136 0.28056243 0.39178726
1.0249534 0.27831841 0.39131922
1.0123657 0.27618641 0.39101273
0.99809915 0.27464285 0.39037085
0.99809915 0.27464285 0.39037085
0.9869079 0.27326542 0.38991088
0.98365772 0.27272192 0.39752251
0.97115523 0.27085805 0.39744371
0.95855278 0.27013156 0.39710489
0.94563395 0.26963302 0.39665085
0.94563395 0.26963302 0.39665085
0.93269461 0.26767018 0.39848024
0.92815173 0.26688752 0.39867684
0.91414821 0.26456848 0.39956298
0.90115887 0.26302579 0.40054661
0.88728929 0.26276869 0.40104178
0.87315476 0.26221699 0.40175784
0.87315476 0.26221699 0.40175784
0.86273724 0.26071513 0.40067673
0.85866839 0.2602483 0.40083021
0.84549993 0.25877899 0.40069652
0.83127671 0.25794789 0.40090129
0.81812292 0.25780979 0.40077919
0.81812292 0.25780979 0.40077919
0.80573118 0.25605401 0.40059951
0.80000716 0.25558931 0.40082139
0.78667521 0.25426015 0.40083328
0.77198744 0.25262851 0.40084895
0.7597062 0.25243616 0.40058991
0.7597062 0.25243616 0.40058991
0.74805373 0.25211728 0.39945501
0.74330503 0.25195658 0.3992852
0.7289083 0.25124618 0.39903179
0.71497935 0.25061449 0.39917603
0.70033467 0.24963602 0.39965031
0.70033467 0.24963602 0.39965031
0.68813676 0.24869357 0.39823788
0.68524766 0.24865821 0.39814278
0.67353553 0.2484547 0.39792156
0.65989804 0.24831429 0.39768031
0.6468187 0.24744929 0.397535
0.63369823 0.24562207 0.39788923
0.63369823 0.24562207 0.39788923
0.61978954 0.24541305 0.39821166
0.61671156 0.24538305 0.39819115
0.60457957 0.24516734 0.39828208
0.59119648 0.24485409 0.39799222
0.5783534 0.24301198 0.39696565
0.56459844 0.24271977 0.39694992
0.56459844 0.24271977 0.39694992
0.5529049 0.242752 0.39660904
0.54884249 0.24259323 0.39647231
0.53362632 0.24183039 0.39674458
0.52460128 0.24035092 0.39062211
0.51163846 0.239439 0.39049622
0.51163846 0.239439 0.39049622
0.49816924 0.23893254 0.39050528
0.49376634 0.23893026 0.39032981
0.48079234 0.23963258 0.38951448
0.4686358 0.23727985 0.38725609
0.45719385 0.2365707 0.3867875
0.44432038 0.23524559 0.38631666
0.44432038 0.23524559 0.38631666
0.42949241 0.23426069 0.38626534
0.42658985 0.23416772 0.38616645
0.41381401 0.23403059 0.38588968
0.40003043 0.23370029 0.38506144
0.38857147 0.23178931 0.38508165
0.38857147 0.23178931 0.38508165
0.3743709 0.23139036 0.38393494
0.37142318 0.23148443 0.38389218
0.35849038 0.23198956 0.38338727
0.34312519 0.22896877 0.38562873
0.32982457 0.22810711 0.38550934
0.32982457 0.22810711 0.38550934
0.31682992 0.22713199 0.3851459
0.31143859 0.22699361 0.38498253
0.29960033 0.22694932 0.38457668
0.29090613 0.22435412 0.38461298
0.2780658 0.22380722 0.38433909
0.26376799 0.22309904 0.38397989
0.26376799 0.22309904 0.38397989
0.25196171 0.22236592 0.38382778
0.24910168 0.22218664 0.38381216
0.23935491 0.22201057 0.37604249
0.22627664 0.22159255 0.37538689
0.21367143 0.22106783 0.37476766
